# .PCD v0.7 - Point Cloud Data file format
VERSION 0.7
FIELDS x y z intensity
SIZE 4 4 4 4
TYPE F F F F
COUNT 1 1 1 1
WIDTH 1300
HEIGHT 1
VIEWPOINT 0 0 0 1 0 0 0
POINTS 1300
DATA ascii
-1.4672828 1.3071989 -2.4714959 12.2
-1.2167149 1.304392 -2.4154923 12
-1.1875906 1.307164 -2.4089341 13
-0.96326351 1.2566772 -2.4193604 12
-0.74761796 1.209855 -2.4073908 12
-3.0356963 1.4875449 -2.5739534 13
-2.8951378 1.5632534 -2.5683486 13
-2.5208805 1.4082705 -2.5167418 12
-2.3281555 1.4732473 -2.4932289 12.4
-2.1060405 1.4791085 -2.4784791 12.8
-1.8470931 1.4918977 -2.4943664 13
-1.6785338 1.5101966 -2.4553304 13
-1.4637333 1.4654207 -2.4603901 13
-1.1734211 1.4894958 -2.4138749 13
-0.94704819 1.4759684 -2.4095352 13
-3.1928926 1.7011338 -2.5860133 13
-2.9348752 1.6382971 -2.5608385 14
-2.6977329 1.7736875 -2.5458856 13
-2.4681509 1.6602499 -2.5072422 13.5
-2.3658228 1.7403351 -2.5130332 13
-2.0895786 1.6980872 -2.4815285 13.5
-1.9156865 1.6554449 -2.5130277 13.5
-1.7404016 1.6987581 -2.4823029 13.5
-1.0548153 1.7276126 -2.4079521 14
-0.84317124 1.7261909 -2.4186392 14
-3.1132369 1.9440218 -2.5965674 13
-2.5205395 1.9230103 -2.532434 14
-2.2238851 1.9943655 -2.522948 14
-1.7555809 1.9770126 -2.4909666 14
-2.9410493 2.1551397 -2.5889852 14
-4.1859283 2.2597017 -2.5950146 14
-3.9476511 2.2938182 -2.5662978 14
-3.6986163 2.2951789 -2.570895 14
-3.3124585 2.2791848 -2.4771898 14
0.08422935 -0.60880333 -2.3350239 3
0.53450382 -0.73880225 -2.3001411 3
-0.49962744 -0.48988232 -2.3615711 3.5
-0.0047821999 -0.40877315 -2.2701426 4
0.10618354 -0.49400106 -2.3220627 3.4166667
0.31286058 -0.48935741 -2.2904744 3.5
0.51240182 -0.49041873 -2.2899821 4.5
0.64668787 -0.51784486 -2.3136225 3
1.0007997 -0.40456706 -2.2558012 4
1.289475 -0.49734968 -2.2162161 3.5
-1.6318619 -0.21070829 -2.3862031 6
-0.4788014 -0.30945688 -2.3414853 4.6666665
-0.070532382 -0.35113174 -2.3078098 4
0.084266618 -0.28139848 -2.2819321 5
0.53298104 -0.25677624 -2.2634335 5.5
0.68652105 -0.20144111 -2.2275655 6
0.98236656 -0.28330943 -2.2208023 5
1.1759908 -0.33227354 -2.2150922 4
-1.654494 -0.070059806 -2.3804262 7
-0.48986754 -0.12188765 -2.3464425 6.3333335
-0.030974776 -0.099073172 -2.2636745 6.25
0.078588046 -0.097936668 -2.2798505 6.625
0.23864651 -0.10287446 -2.2825544 6.5
0.4966079 -0.085809372 -2.2710307 7
0.65253174 -0.10217092 -2.2535648 6.5
1.0944965 -0.075182945 -2.2177742 6.5
3.2689798 -0.063369103 -2.2217915 7
-1.626132 0.073197722 -2.3975732 8
-1.3223377 0.069882929 -2.3785019 8
-0.44109073 0.18560126 -2.3277481 8
0.40169907 0.086566336 -2.2708216 8
1.1892926 0.17324716 -2.2222171 8
1.2626421 0.11678927 -2.2113118 8
-0.51946086 0.28998283 -2.344794 8.5
-0.015148878 0.33059099 -2.2980902 8
0.10047121 0.27041596 -2.2906165 8.1428576
0.25997353 0.24535358 -2.2911355 8
0.47147641 0.29879016 -2.2841971 8.333333
0.69091749 0.25435275 -2.2840719 8
0.91201371 0.32089335 -2.2455189 8.5
1.0833863 0.24511547 -2.2253761 8
1.2602396 0.2718173 -2.2040913 8
1.5378733 0.33737111 -2.2010069 9
1.6228542 0.33313835 -2.2144184 8.75
3.1582646 0.28603989 -2.3010211 8.6000004
3.2968788 0.27230525 -2.2740738 8.333333
-1.0601667 0.4695445 -2.3771477 10
-0.70289022 0.56298763 -2.374599 9
-0.50847363 0.44360688 -2.3380303 10
-0.056918245 0.50619882 -2.3021355 9
0.09388677 0.50051069 -2.3143024 9.666667
0.29245627 0.49578243 -2.3177691 9
0.50666237 0.48220721 -2.2849026 9.25
0.68628925 0.50488329 -2.2622902 9.333333
0.97337687 0.57345951 -2.2481236 10
1.058827 0.42295417 -2.2373357 9
1.2514462 0.51918417 -2.2208052 9.25
2.9802699 0.45856202 -2.3038709 10
3.1509564 0.46177077 -2.3201046 10
3.3399885 0.47122455 -2.3199325 10
-0.8729161 0.73059124 -2.3605206 10
-0.75460565 0.71252316 -2.3773894 10
-0.46943909 0.7094655 -2.3601708 11.5
-0.23905818 0.75272274 -2.321296 10
-0.1402261 0.70718396 -2.3180103 10.5
0.08941073 0.70863098 -2.3162427 11.142858
0.32034099 0.69314539 -2.3229957 10
0.54295248 0.70300484 -2.2822857 10.5
0.69641966 0.69904929 -2.2715659 10.666667
1.2745959 0.79122818 -2.2198474 11.5
-0.69557762 0.92763704 -2.3663826 12.4375
-0.26678693 0.90952706 -2.3265104 11.388889
-0.11508402 0.91476041 -2.3287992 12.227273
0.0044884533 0.92828631 -2.3215547 13
0.34408298 0.91514277 -2.3219662 11.333333
0.5249939 0.88687313 -2.2857296 11.6
0.69805294 0.92084032 -2.2679813 12
0.92950326 0.97682393 -2.2469783 13.5
1.0237155 0.96226919 -2.2473161 13
1.2611991 0.94345629 -2.2217741 12
1.6005764 0.96548718 -2.2042084 14
-0.72527719 1.0821548 -2.3636212 13.5
-0.24515194 1.0801746 -2.3392704 12
-0.13166167 1.117892 -2.3313563 13.192307
0.044334054 1.1221956 -2.3383393 12.75
0.32977509 1.1107326 -2.3140004 12
0.57603002 1.0522642 -2.2900903 12
0.7133646 1.0966632 -2.2711778 13.4
0.9273262 1.1133035 -2.2557704 13
1.0444759 1.0537864 -2.2466834 13.666667
1.2760136 1.1388488 -2.2250662 13.4
1.5201925 1.1000494 -2.2025578 14
-1.1637857 1.3057133 -2.3984132 13.5
-0.95586157 1.334368 -2.3957801 13
-0.68475223 1.2722819 -2.377851 12.5
-0.28953838 1.2912626 -2.3348079 13
-0.13116211 1.3316798 -2.3304846 13.375
0.0054440498 1.2593905 -2.3381729 14
0.25593579 1.309063 -2.3215148 13.5
0.42333293 1.3899051 -2.3247626 14
0.71432656 1.2999145 -2.2685888 14
0.81894112 1.326376 -2.2807992 14
1.1087135 1.2792312 -2.2459142 13.666667
1.2668535 1.2520096 -2.2212033 14
1.4697211 1.3494382 -2.2089045 14
-0.93705511 1.5437096 -2.3842354 14
-0.67546189 1.4750798 -2.3885932 13.25
-0.59301996 1.449325 -2.3836794 14
-0.25546098 1.5283136 -2.3373935 14
-0.10055518 1.5233854 -2.3338528 13.666667
0.19827533 1.5457442 -2.3331416 14
0.90679836 1.5103554 -2.2631724 14
-0.87693167 1.6173931 -2.3888686 14
2.8783791 -0.81929433 -2.1275709 2
2.3095701 -0.61863565 -2.1565325 3
2.5883284 -0.67022693 -2.1393268 3
2.7684488 -0.65511703 -2.1229627 3
2.882386 -0.65631002 -2.109689 3
2.1330664 -0.4754391 -2.1330626 3.6666667
2.2908816 -0.48166084 -2.1524162 3.6666667
2.5197377 -0.50042224 -2.1404316 3.3333333
2.7395103 -0.49793795 -2.1087203 3.5714285
2.9058869 -0.46626344 -2.1080661 3.7
1.1543061 -0.2122642 -2.1967971 5
1.2846659 -0.30606607 -2.1797748 5
2.1477559 -0.31214008 -2.1078498 4.8571429
2.2749944 -0.26317531 -2.0949783 5.4499998
2.5338304 -0.29027101 -2.1023991 5
2.6840265 -0.30511561 -2.0887096 5
2.9171405 -0.27122426 -2.0812986 5.347826
3.0305004 -0.21792501 -2.1218979 5.5
3.2561319 -0.2633073 -2.140198 5.4285712
0.94537473 -0.066498287 -2.1816916 7
1.3136134 -0.12488129 -2.1878343 6.5
1.9566324 -0.094310418 -2.0905204 6.5
2.1273746 -0.088934913 -2.0869489 6.6666665
2.2657299 -0.10588484 -2.1042428 6.5357141
2.4757257 -0.078004807 -2.0978329 6.75
2.6862662 -0.13622282 -2.0852439 6
2.9205744 -0.07910765 -2.0908637 6.7692308
3.0151367 -0.075011089 -2.1096551 6.6999998
3.2460847 -0.079998359 -2.1078753 6.625
1.2752783 0.12350567 -2.1921437 8
1.6045092 0.17980513 -2.1723771 8
1.9931657 0.182743 -2.1653051 8
2.078023 0.10231346 -2.1278238 8
2.3524089 0.17717221 -2.1209111 8
2.4747539 0.092631824 -2.1024289 8
2.9371042 0.13220748 -2.0930624 8
-0.6147455 0.2451057 -2.0002584 8
-0.55213058 0.31309095 -2.0165081 9
1.3533069 0.30788526 -2.1682072 9
1.4839611 0.27587676 -2.194808 8.125
1.6090486 0.30845174 -2.1764419 9
1.8847923 0.26971588 -2.1609905 8
2.102118 0.28708991 -2.1282365 8.416667
2.3376093 0.27719623 -2.1157408 8.5
2.9166272 0.30252892 -2.0994461 8.708333
3.0857239 0.30980644 -2.1397502 8.416667
3.2686756 0.29383302 -2.1231053 8.375
1.6159388 0.49413541 -2.1847112 10.5
2.0372012 0.46067211 -2.156193 9
2.4755869 0.49378908 -2.1138148 9.75
2.8894827 0.50934577 -2.0964468 10.05
3.1117637 0.51830471 -2.1455529 9.833333
3.2561367 0.48175958 -2.1197705 9.666667
1.693177 0.66674984 -2.1843572 11
1.9816421 0.77669704 -2.1608667 13
2.4059424 0.77796513 -2.117382 12
2.7808917 0.70887661 -2.099546 12.25
2.9054604 0.71326107 -2.096678 11.5
1.5816416 0.93439412 -2.1948571 13
1.6900897 0.86592913 -2.181675 13.25
2.2887971 0.8761242 -2.1291502 13.5
2.4722903 0.88892436 -2.1119711 13.666667
2.7467186 0.92251015 -2.1006985 14
2.8828616 0.89971215 -2.0954516 12.740741
1.7158425 1.0998349 -2.1869664 13.5
1.8275181 1.1252536 -2.178673 13
2.2256255 1.0541482 -2.1314898 13.5
2.9008093 1.09556 -2.0961723 13.527778
1.7205607 1.2955352 -2.1873162 14
2.0106902 1.2306445 -2.1481345 14
2.2409105 1.2614746 -2.1341851 14
2.8845875 1.2275088 -2.0976777 14
10.242208 1.5880206 -2.0987179 11
2.1343741 -0.22772112 -1.9910872 6
-0.6874665 -0.07272584 -1.9128659 7
-0.68753254 0.18101962 -1.9063568 8
0.09904179 0.12591928 -1.8894128 7.6666665
-0.70036292 0.30938733 -1.9225422 8.545455
-0.54346132 0.34664673 -1.9916171 9
0.093060821 0.30120584 -1.9060935 8.772727
-0.68126369 0.5028336 -1.9130816 10.090909
-0.58805645 0.53659952 -1.9534569 10.833334
-0.21947035 0.51076353 -1.9838617 11
-0.088742182 0.5136224 -1.9565508 10
0.06859462 0.49935001 -1.9489206 10.3125
-0.66811228 0.65624833 -1.8910364 11.6
-0.059240531 0.68215042 -1.9117432 11.4
0.0097796917 0.83260399 -1.9393806 11
-0.75153244 -0.48435277 -1.6694703 3.5
-0.43276095 -0.510037 -1.7633716 3.5
-0.018594503 -0.51304895 -1.650589 3.5
0.054049492 -0.43846971 -1.6785605 4.5
-0.72883093 -0.29279682 -1.6547358 5
-0.42334652 -0.30650523 -1.738826 5
-0.39754462 -0.38749036 -1.7717867 5
-0.082784235 -0.31124574 -1.6820323 4.75
0.046997141 -0.26967055 -1.676864 5.4000001
-0.73588639 -0.089385159 -1.6471052 6.5999999
-0.42672318 -0.10577407 -1.7666 6.5
-0.074796654 -0.093583748 -1.6508911 6.5999999
0.029479887 -0.10825144 -1.684301 6.5555553
-0.73787475 0.17870559 -1.626279 8
-0.0038125515 0.19673567 -1.6225729 8
0.030090332 0.12583622 -1.647759 8
-0.42039835 0.20899405 -1.750946 8
-0.035806037 0.28091687 -1.6479733 8.3999996
-0.55568886 0.62617409 -1.7918307 10
-0.72688985 -0.20649546 -1.5849762 6
2.0376718 -0.081223115 -1.4716227 6.5
-0.13691592 0.32449529 -1.5823913 9
1.9596845 -0.18041335 -1.313796 6
4.2949772 -0.097378112 -1.0415659 6.25
4.3112655 0.29412693 -1.0249773 8.5
4.2794237 0.51387149 -1.0042192 10
4.3215966 -0.16010608 -0.99324226 6
4.2540679 0.14587811 -0.96760249 8
4.2719545 0.29989174 -0.92764741 8.636364
4.1932168 0.56590182 -0.87475359 10
4.2266169 0.54640913 -0.81969476 10
-0.81944484 -0.20453191 -0.70327461 5
4.273356 -0.26414931 -0.66307259 5.1666665
-0.85314256 -0.070210315 -0.69596642 6.5
-0.73042095 -0.059392136 -0.66560811 6.5
4.2662134 -0.11213771 -0.63480735 6.5
-0.86088383 0.085605606 -0.64063811 8
4.3133335 0.17017411 -0.77744389 8
4.3232369 0.28472114 -0.78108716 9
4.1705585 0.55281073 -0.63434255 10
4.2084613 0.4105511 -0.62119615 9
1.2389122 -0.22323707 -0.48656917 5
1.4147806 -0.250323 -0.40615726 4.5
4.2820096 -0.26154006 -0.50577134 5
-0.96490782 -0.018691385 -0.4354443 7
-0.71646309 -0.10136008 -0.44571471 6.5
1.1978512 -0.079352915 -0.47929049 6.5
1.321298 -0.056593806 -0.4895249 6.75
1.5080833 -0.13657215 -0.45276412 5.8333335
1.6874167 -0.10315707 -0.50158656 6.375
4.2806907 -0.07708697 -0.48474443 6.5999999
-0.92115039 0.049997821 -0.41893274 8.5
4.2730112 0.14751409 -0.46620986 8.208333
4.2677484 0.30456036 -0.4529281 9.212121
4.1742249 0.53916311 -0.44404274 10
4.219316 0.47397438 -0.44653749 9.666667
-0.71320629 -0.22566471 -0.34480983 6
4.2792587 -0.27586854 -0.37697199 2.5
-0.91844386 -0.07020288 -0.31999719 6
-0.72055835 -0.090671569 -0.24491923 6.4166665
1.4019495 -0.087488174 -0.39891362 6
4.3196368 -0.15531982 -0.39187324 5
-0.91632867 0.066009909 -0.38251561 9
-0.72712171 0.077651098 -0.22622538 8.5
4.1981463 0.071014583 -0.3863343 8
4.3132138 0.17565039 -0.3564882 9.1428576
4.5079627 0.15112509 -0.24929595 8
4.3046441 0.29532412 -0.3541849 10.307693
4.1988835 0.52282131 -0.36690378 10
4.2111444 0.5207603 -0.35870087 10
-0.74546528 -0.53714496 -0.16908991 4
4.2537351 -0.45212695 -0.07129693 4
-0.67314601 -0.25889778 -0.056155443 5
4.2516918 -0.24602824 -0.064487219 5.5
-0.98942369 -0.055110566 -0.13370448 5.5
-0.73950946 -0.097380422 -0.11621761 5
4.2458582 -0.080582038 -0.048427105 4.75
4.9667029 -0.050398853 -0.08075881 6.3333335
-0.96534431 0.082438961 -0.12449865 8.333334
-0.69852114 0.082609296 -0.13928616 8
4.3367915 0.14408009 -0.097818613 8
4.9915385 0.16461861 -0.19540286 8
4.3350878 0.23844931 -0.084044695 9
4.4048548 0.31957516 -0.19181514 10
4.9770789 0.33238623 -0.14469737 10
4.9628043 0.47131824 -0.11155216 11.666667
4.9704409 -0.44548455 0.042915821 4
-0.96637678 -0.21313483 0.1210224 5
-0.76998568 -0.23274598 0.10605085 5
4.2689085 -0.27165839 0.085118055 4.3229165
4.4511404 -0.23920248 0.17101288 4
4.6149192 -0.21589379 0.19903922 5
4.9343309 -0.21038106 0.133798 2
-1.0098432 -0.024044506 0.18806341 5.8333335
-0.89950573 -0.099055886 0.098345518 6
-0.77398127 -0.080609895 0.11550785 6.1666665
4.2616439 -0.096034415 0.098632507 5.9095235
4.4856672 -0.095905282 0.15784484 5.1363635
4.6226568 -0.076552689 0.17546809 6.5
4.9456553 -0.092329286 0.10000737 5.8000002
-0.94086474 0.097877204 0.13127287 8.333333
-0.7663964 0.073543705 0.11061318 8.6999998
4.1666584 0.080350466 0.08709079 8
4.2368798 0.10011523 0.1416115 8.666667
4.4753289 0.14562808 0.13930051 8
4.9432054 0.1734308 0.089577965 9.2777777
4.9420705 0.33283645 0.095339686 10.954545
4.9312177 0.45295289 0.084983706 13
-0.76614511 -0.35013828 0.38242036 4.5
4.6091309 -0.20894141 0.20518732 5
4.8731956 -0.23246068 0.25631803 6
-1.0568616 -0.11235601 0.2533738 4.5
-0.91392899 -0.064559959 0.32297826 5.8571429
-0.77379537 -0.091702968 0.32823861 6.5
4.2340813 -0.1535276 0.21926296 4
4.5624886 -0.14954114 0.20878303 3
4.9060926 -0.062509894 0.27157009 6.75
-1.0248715 0.070432954 0.25815982 8.5
-0.91545713 0.092108399 0.35362202 8.4285717
-0.77725077 0.087881058 0.32055748 8
4.1775055 0.064590618 0.32936668 8
4.8843966 0.170131 0.35329229 10.233334
4.4596229 0.24663861 0.20983386 9
4.9274826 0.30608431 0.30748823 9.5641727
4.6683054 0.55971873 0.20672154 12.5
4.9006014 0.50564367 0.30647922 10.782609
4.9128227 0.70498717 0.35876381 12.409091
-0.82130051 -0.53671682 0.52430475 4
4.6493597 -0.43389076 0.44150186 4
-0.78411996 -0.22949795 0.46038774 5.625
4.6348948 -0.26258412 0.48862574 3.5416667
-1.0500185 -0.024873067 0.53865409 6
-0.85147792 -0.080036364 0.50420177 5.5833335
-0.78239727 -0.066814758 0.43718839 6.4000001
4.6476545 -0.084807448 0.47665435 5.8090281
-1.0429686 0.10174713 0.5287019 8.5
-0.89599103 0.091319166 0.47690573 8.333333
-0.77600056 0.085764341 0.46702513 8
4.6330156 0.081526034 0.51360792 8.25
4.8935289 0.16213131 0.48107824 9
4.909121 0.28912747 0.45679885 10.088235
4.9057117 0.51307434 0.43675607 11.5
4.9231992 0.71962577 0.45787084 13
4.9362254 0.8927055 0.47139868 12.166667
-0.81564999 -0.53276193 0.60374546 4
4.657176 -0.51246166 0.64006972 3.5
-0.81553936 -0.37535921 0.64996719 5
-0.74435043 -0.23580575 0.76291078 4.8333335
4.58113 -0.23686761 0.70619601 2
4.6652308 -0.24922107 0.69056106 3.8840578
4.8377676 -0.24046898 0.75058329 3.7962961
-1.0357368 -0.04152669 0.63658202 5.75
-0.88195497 -0.064985313 0.72669083 5.9375
-0.7620247 -0.076485656 0.69186455 6.375
4.6559997 -0.088807441 0.67982811 5.6816664
4.8516741 -0.081876308 0.72128493 5.8142362
-1.0163531 0.092604682 0.63183272 8.583334
-0.88113368 0.098433241 0.7275365 8.6000004
-0.77175486 0.085341036 0.68377012 8
4.6433792 0.063027382 0.6676237 8.083334
4.8920627 0.14206076 0.69607311 9.1785707
4.9012685 0.28730795 0.69298458 10.05
4.889183 0.48577356 0.69183594 12.333333
4.9037499 0.73906785 0.75017756 12.666667
4.9171438 0.87384444 0.74231213 12.666667
4.7121005 -0.62243748 0.92710209 3
4.72225 -0.47561362 0.92992246 3.375
-0.81873876 -0.28413641 0.83120936 4.5
4.6890254 -0.25239339 0.91285616 3.6666667
4.8622065 -0.2756044 0.83486497 0
-1.0663512 -0.028961679 0.93185186 6.083333
-0.89714766 -0.062438447 0.88582879 5.7222228
-0.78929973 -0.038070314 0.96643388 6
4.6980319 -0.077529825 0.93261242 5.8265305
-1.0391893 0.095256463 0.92293262 8.5
-0.9037081 0.093991384 0.90987998 8.3999996
-0.79618442 0.12136355 0.94295245 8
4.7265406 0.086757593 0.88846469 8.5
4.8571367 0.0042010169 0.82594323 7
4.879714 0.30803707 0.86838984 10.583117
4.8837805 0.51492041 0.85916084 12.46875
4.8902936 0.71089971 0.83340532 11.727273
4.8910041 0.80693942 0.8293494 12
4.8680868 -0.47966206 1.1507223 3.5
-0.85399127 -0.22034152 1.1810105 6
-0.77621126 -0.30481777 1.1251034 4.1999998
4.6815567 -0.23845635 1.0814921 3.0357144
4.8547349 -0.29273731 1.1584797 3.75
-0.83867711 -0.080817498 1.1433736 5.25
-0.79572225 -0.079868384 1.1263289 4.666667
4.7063818 -0.095216639 1.0924072 5.5085716
4.8379722 -0.089449674 1.1526499 5.9210525
-0.83159649 0.082778946 1.1268212 8.3000002
4.7290611 0.12434737 1.0815349 8.6125002
4.8378015 0.15205736 1.1065531 8.666666
4.8640966 0.30268073 1.0913478 10.375
4.8574548 0.47782421 1.1149729 12.346154
4.8593493 0.63016939 1.1480365 12.5
4.8746696 -0.532727 1.2922529 3.6666667
-0.91286868 -0.25996029 1.3035107 2.5999999
-0.7794891 -0.25856236 1.2365463 4
4.8553586 -0.23749891 1.2839152 3.7307692
-1.0252998 -0.074262843 1.2908363 4.9000001
-0.89017946 -0.10171794 1.3106637 4.969697
-0.78101981 -0.15341885 1.3078394 2.5833333
4.8582339 -0.098690473 1.2285302 5.9166665
-1.0250003 0.080941871 1.3258873 8.1999998
-0.84764344 0.073646054 1.2991991 8.09375
4.8451219 0.12818173 1.2873837 8.6999998
4.8629942 0.35840511 1.2093627 9
4.8389311 0.49546257 1.2807406 13.833333
4.8628669 0.61295754 1.2148474 11
4.8211794 -0.7192508 1.5998622 3
-0.87333632 -0.47231194 1.4904463 3.5
4.819016 -0.41056582 1.5692015 3
-1.0224369 -0.23311299 1.5053103 0.5
-0.9026612 -0.26452678 1.5230938 3.5
-0.79132128 -0.28170222 1.5032732 5
4.8396959 -0.25875553 1.4800553 4.0555553
-1.0409025 -0.11563166 1.490784 4.0277777
-0.93924165 -0.1249869 1.4973899 4.4444447
4.838141 -0.084834203 1.5048481 5.875
-1.036136 0.097214386 1.4946913 8.4099998
-0.92891443 0.097042128 1.5166439 8.25
4.8372083 0.10160974 1.4886925 8
6.2176657 0.14713342 1.5919442 8
4.8152542 0.29402301 1.4856611 11.733334
6.2225027 0.29051423 1.5738045 9.5
4.7901621 0.42556459 1.5152194 14
4.8471222 0.57213759 1.5136769 13.25
6.2202272 0.42762125 1.5985239 11
4.8545084 0.6448378 1.5679705 13
4.8373542 -0.4447735 1.6522555 3.5
-0.87200719 -0.24254848 1.6742734 5.6666665
4.7816863 -0.26008868 1.6560316 3.1666667
4.8184495 -0.24123555 1.6781411 3.6666667
6.1869054 -0.25788605 1.78304 4.5
-1.0566436 -0.062962025 1.6267046 5.5555553
-0.90460253 -0.065997235 1.6533091 6.416667
4.797483 -0.13881508 1.6844689 4.5
4.810945 -0.081908159 1.6668793 5.6666665
6.2000513 -0.079874873 1.7642055 6.5
-1.0307498 0.097839087 1.6700684 8.166667
-0.8746562 0.082049854 1.649521 8
4.7968583 0.17428046 1.7566392 9
4.8171477 0.084146455 1.6550804 8.125
6.1978593 0.14238001 1.7720033 8
6.2015929 0.14321172 1.772192 8
4.779974 0.34800631 1.6846342 13.5
4.8036456 0.22022533 1.6511347 12
6.209301 0.28246945 1.7285192 9.5
4.7849474 0.45361662 1.7634999 14
4.8071256 0.44707501 1.6056248 14
6.1947799 0.50770086 1.7293487 12
6.2072229 0.52064312 1.6078066 12
6.2256889 0.61341298 1.6595155 13
4.8171954 -0.60753542 1.8965919 3
-0.91484928 -0.42175847 1.9124864 4
4.7943926 -0.55521888 1.851519 4
4.8132715 -0.48728412 1.958554 3.7
-0.88916397 -0.25483581 1.8681602 5
4.7831554 -0.25770321 1.9503261 3.9000001
4.8237805 -0.29081991 1.9964032 4.5
6.1564846 -0.24790011 1.971622 4.5
-1.0286798 -0.066616341 1.9370153 5.6571426
-0.89262229 -0.07802733 1.8552387 5.875
4.7827497 -0.090143636 1.9526047 5.719697
4.8285589 -0.064583465 1.9565585 6
6.1822462 -0.076967314 1.9499311 6.5
-1.0403488 0.067529038 1.8931239 8.25
-0.87971932 0.0860162 1.8361701 8.125
4.7854028 0.13065663 1.959204 8.7592583
4.8146968 0.12897582 1.9356798 8.7142859
6.1785336 0.19957051 1.9485071 8
6.2012091 0.13331389 1.8939133 8
4.7848334 0.29616094 1.9448525 10.588235
4.8123856 0.34649247 1.9864489 12.1
6.1770315 0.32808703 1.9515811 9.625
4.7789907 0.49021441 1.9836695 9.7857141
4.8054366 0.52437967 1.9720659 12.166667
6.1765509 0.50097609 1.9569504 11.84
4.7623143 0.60686636 1.9724685 10
4.8319159 0.72666478 1.9370857 11.833333
4.8274961 -0.63705915 2.0143297 3
-0.9017663 -0.47289491 2.0216231 3.5
4.8076119 -0.45837232 2.0156794 3.6666667
-0.86620593 -0.31298989 2.1066952 5
4.7827601 -0.25149798 2.0186696 5.5
4.8172269 -0.28365707 2.0099695 4.25
6.1677809 -0.29210523 2.0434456 4
-1.0563745 -0.10833385 2.0582323 5.25
4.7823839 -0.11752512 2.0153229 4.6500001
4.8653879 -0.07986863 2.0435588 6.0999999
6.2189193 -0.076665007 2.0378928 6.5
-1.0686095 0.084436253 2.0640321 8
4.7845163 0.14254303 2.0163128 8.9285717
4.8619027 0.12334875 2.0147343 8
5.1727576 0.090638041 2.0362601 8
6.1811485 0.099001072 2.1002092 8
6.2049284 0.16643274 2.0468886 8
4.7855453 0.30622795 2.0114772 10.944445
4.8614073 0.31218189 2.0158343 11.5
5.1506133 0.28021383 2.0424509 11.5
6.1760783 0.29154164 2.0394034 9.75
4.7908773 0.53797019 2.008142 10.125
4.818717 0.53337151 2.0028193 11.5
6.1818771 0.51240134 2.04001 10.25
6.2104263 0.49485302 2.0856984 10.5
4.7662058 0.74357849 2.0148225 11
4.810308 0.69286841 2.0115592 11
6.2238841 0.70155263 2.0899653 11.25
4.7758589 0.82670176 2.0146117 12
6.184164 0.84846473 2.0992553 12
-0.9332521 -0.42286578 2.3833709 4
-1.0416341 -0.2036553 2.3137517 3
-0.91276824 -0.23552914 2.3024173 5.25
6.1656647 -0.32838511 2.2797482 5
-1.0385488 -0.086235128 2.3397794 5.4285712
-0.94679219 -0.075964168 2.2841358 6.5
6.1925459 -0.17623284 2.3473697 6
6.2314119 -0.033284336 2.3437109 7
-1.0622103 0.069917642 2.3216734 8
-0.8955183 0.086484969 2.2093492 8
6.1946592 0.12966087 2.228322 8
6.192822 0.24018157 2.2829192 8.75
7.6314144 0.83300042 2.2232952 11
6.2087889 -0.47105229 2.4537764 4
-1.0359638 -0.22561127 2.5000896 2.75
-0.90531522 -0.24195775 2.4836001 5.3000002
-1.0308797 -0.094817311 2.4955993 5.4000001
-0.93029135 -0.091521792 2.5436988 6.5500002
6.2322345 -0.10342318 2.4203207 6.5
-1.059669 0.11113357 2.4218774 8
-0.92049313 0.093495913 2.5307553 8
6.1903539 0.16892715 2.4019399 8
6.2064466 0.19933023 2.4164937 8
6.1948256 0.31190208 2.4247625 9.5
6.2164006 0.30250245 2.4335401 8.75
-1.0496962 -0.23555434 2.6067891 3
-1.0609652 -0.11657097 2.6162012 5.1666665
-1.0596371 0.088914506 2.6170654 7.8000002
17.933435 2.1170199 2.7947783 10
0.95980042 -0.24687082 3.1929438 3.5
1.0175713 -0.20437025 3.1869702 5
0.96646333 -0.099944189 3.195169 5.3125
1.0665306 -0.13066636 3.1866665 5
0.95889139 0.063509732 3.1926458 8
0.9657895 0.30950007 3.1904576 10.472222
1.1367741 0.36599001 3.1713619 12
17.924475 1.2728554 3.1988847 9
17.92062 1.4233186 3.162904 9
17.924025 1.9266665 3.1729679 10
0.94192499 -0.51120937 3.2424171 3
1.4450217 -0.4583292 3.2793374 3.5
1.71424 -0.51612645 3.27847 3
2.1114419 -0.52534258 3.3045781 3.5
2.5827742 -0.47406539 3.2842274 3.8333333
0.95487177 -0.25407895 3.2174268 3.9583333
1.0193073 -0.25585335 3.266367 3.1333334
1.3633018 -0.29500532 3.2833469 5
1.4741256 -0.23105796 3.2551169 3.5980394
1.6573493 -0.25395793 3.2463686 3.5
2.0965042 -0.26632416 3.2756391 3.2738097
2.5417233 -0.27620578 3.2911482 3.4583333
2.6213362 -0.21288267 3.305373 0.66666663
0.94451982 -0.099336676 3.2265882 4.898313
1.061092 -0.089547232 3.2384632 5.6999998
1.2860535 -0.071617387 3.2451975 5.840909
1.5065342 -0.11801483 3.2646401 4.5557647
1.6709138 -0.1045782 3.2705042 4.5038891
1.8649216 -0.061877154 3.2639022 5.6999998
2.1107645 -0.12878613 3.2703419 4.0809522
2.3197806 -0.070389889 3.2861855 5
2.5450277 -0.1045085 3.2838883 4.8373013
2.6148016 -0.11025854 3.3063011 3.546875
0.94678521 0.14863068 3.2223649 8.545455
1.1189415 0.13305156 3.2297649 8.5
1.2694501 0.12717472 3.2354286 8.25
1.5128058 0.1532943 3.274662 8.6545448
1.6458486 0.144612 3.2886698 8.5
1.883203 0.10739733 3.2803557 8.5625
2.1068282 0.12160627 3.2676518 8.1428576
2.3056626 0.14321333 3.2763176 8.8500004
2.5198796 0.15098391 3.2792921 8.708333
2.6180098 0.12531441 3.3068414 9.6111107
0.94229949 0.2835336 3.2173104 11.461538
1.1247684 0.27963337 3.2221394 10.833333
1.2742418 0.32128426 3.2260139 10.909091
1.5275562 0.31914717 3.2682929 11.05
1.6698688 0.308153 3.2677162 10.844202
1.9488468 0.32912928 3.2625413 11.875
2.1270275 0.33442959 3.2695885 11.1
2.2862194 0.32513973 3.2681208 12.291667
2.543797 0.30101985 3.2787001 11.059524
2.6137137 0.26268852 3.2855468 13.4375
1.6701157 0.46945459 3.2582834 12.5
1.8732737 0.460572 3.2898631 12
2.1096582 0.48825163 3.2785187 12.2
2.5764132 0.51824641 3.2949769 11
1.5986799 0.69465953 3.3750165 12
1.6513137 0.68976873 3.2749884 13
2.0954111 0.68507159 3.2795157 12.375
2.5289066 0.70591116 3.2996871 12.333333
1.6280859 0.86256087 3.2889266 13.75
1.9200835 0.83899498 3.263607 14
2.0859563 0.85537428 3.2809982 13
2.5015247 0.87757891 3.3047457 13.333333
17.899536 0.86870563 3.2486336 8
2.3338463 1.033216 3.30088 14
17.915108 1.4365631 3.3336096 9
17.918896 1.8987054 3.2777529 10
17.530174 2.5112255 3.3528633 11
2.6321902 -0.21554908 3.4153502 1.75
2.6120558 -0.070723951 3.4854531 5.4000001
2.5979617 0.079970844 3.4137526 8
2.6079564 0.084471866 3.5720696 8
0.94145763 0.23604101 3.5136287 9.5
2.6165609 0.33969212 3.5276682 13.5
17.893297 0.85282773 3.5029585 8
17.89798 1.43976 3.4508026 9
17.892992 1.9986508 3.5280442 10
-0.58198601 -0.25944915 3.7884326 4.3000002
0.88864392 -0.27475071 3.7756729 4.5
17.677788 -0.24709888 3.7329745 7
-0.6259045 -0.12332385 3.7967787 6.5
-0.57903147 -0.049149469 3.7902112 6.8000002
0.88134724 -0.14715576 3.746599 5.5
2.5878127 -0.041048042 3.7438898 6.375
-0.62836838 0.18666017 3.7892504 8
0.87952518 0.11008555 3.7124243 8
2.5914114 0.11153597 3.7475574 8.333333
-0.58226091 0.28315711 3.7946117 8.583333
2.6152115 0.33853939 3.6896968 13.25
-0.59265298 0.44614583 3.7980161 10
17.887053 0.86785132 3.7965035 8
17.479179 2.7151079 3.7869473 11
-13.31353 3.2019835 3.7317963 13
-0.60246277 -0.40799063 3.8158708 4
-0.54965085 -0.45081717 3.8578022 3.5
-0.15873353 -0.46749067 3.8791831 3
-0.6277042 -0.27357063 3.8169184 4.5
-0.56778437 -0.28863922 3.851265 5
-0.26519096 -0.26697853 3.8276763 4.5
-0.082953051 -0.23151314 3.8313198 5
0.073519543 -0.2955153 3.8894532 4.4000001
0.54379714 -0.2651346 3.9171562 4.2142859
2.5834608 -0.21601766 3.9369788 3
2.6112084 -0.23763253 3.9280715 3
-0.61089724 -0.08924786 3.8206253 6
-0.56587934 -0.07363265 3.8444254 6.3611112
-0.34296632 -0.10692343 3.8624334 6
-0.067202881 -0.1106378 3.878819 5.6666665
0.058857027 -0.072577469 3.9142764 6.2083335
0.37140045 -0.13687322 3.9850307 6
0.55122143 -0.086145975 3.9560587 6.2352943
0.61746454 -0.049160723 3.9762511 6.5
2.578424 -0.097862959 3.9075775 5.125
-0.63047343 0.14719525 3.8135538 7.9444447
-0.56501055 0.14211904 3.8321462 7.875
-0.30598786 0.17168441 3.8534875 8
-0.14644575 0.18221065 3.863966 8
0.037880778 0.164065 3.8995914 8.5
0.35921192 0.15253966 3.9405766 8.5
0.56345636 0.14559893 3.9615967 7.8333335
0.62060606 0.12252215 3.9774382 7.9375
2.581615 0.12621668 3.9496205 8.5
-0.62108612 0.3336592 3.8126512 9.75
-0.54875946 0.28639901 3.8199759 9.041667
-0.36226881 0.30707708 3.8435535 9.5
-0.15376928 0.31941372 3.8707013 9.125
0.0080385208 0.34252909 3.87325 11
0.31399435 0.34740555 3.9215169 10.5
0.58211309 0.29576588 3.9639966 9.166667
0.61516345 0.33664814 3.9646573 10.25
0.86061513 0.22763994 3.9193738 9
2.5974946 0.26367325 3.8725996 11
2.6252913 0.37406883 3.8700647 13.5
17.849659 0.36554134 3.8508742 8
-0.62064785 0.46017417 3.8132975 10.333333
-0.56132692 0.47186491 3.819108 11.666667
-0.33968693 0.50767952 3.8378952 11.875
-0.075259976 0.47695443 3.8821995 11.5
0.18911612 0.48806807 3.9326172 11
0.33479458 0.4905259 3.9272397 13.375
0.5707038 0.45811835 3.9511847 11
0.61298209 0.47364393 3.9610176 12.5
2.6085176 0.42132157 3.914506 14
-5.7866697 0.74577868 3.982414 9
17.856983 0.90731049 3.8700314 8
-13.665136 1.3013207 3.9040532 9
-13.65405 1.4857937 3.9241264 9
-13.623077 1.7397174 3.9687779 10
17.865948 1.9287477 3.9184966 10
-13.679243 2.0502832 3.9416714 10
17.865517 2.003474 3.9263895 10
-13.902545 2.2094879 3.9427128 11
-13.603926 2.650424 3.8654892 12
17.478285 2.6521516 3.8465593 11
-13.635265 3.1362352 3.9019225 12.5
-13.551572 3.1911769 3.895231 12
2.5706408 -0.071252055 4.1398335 6
0.6313169 0.10254843 4.0304232 7.75
2.5623782 0.12226325 4.1637969 8.5
2.5571015 0.30926502 4.1088939 11.416667
2.6173239 0.33099535 4.1520686 11.666667
17.820227 0.27198169 4.0977926 8
1.5263903 0.54450798 4.1417022 11
2.5613103 0.46765518 4.1608248 13.5
2.6040094 0.46812445 4.1704988 13.5
1.5329804 0.71497214 4.1595902 12.611111
1.6211019 0.63358492 4.1329784 12
17.881496 0.72005165 4.0961523 8
1.504815 0.89684623 4.1721516 13.625
17.834782 0.86416996 4.1338139 8
1.5253621 1.0447462 4.1828685 14
17.871628 1.3011633 4.0742064 9
-13.63 1.4516461 4.1872473 9
-9.0083466 1.5135127 4.1767263 10
-8.962245 1.4883201 4.1809754 11
17.828896 1.5285019 4.0985026 9
-8.9706755 1.821939 4.1714988 12
17.833096 1.9789231 4.0728469 10
17.833286 2.1845708 4.0416226 10
-13.479018 3.1867673 4.1889 12
2.7498779 -0.23512134 4.3359208 3.5
2.8836474 -0.25171465 4.3469086 3.125
3.2194369 -0.26836327 4.392971 3.5
8.0517292 -0.30826449 4.3586054 5.5
-5.8155251 -0.13673373 4.3511643 7
-5.7980995 -0.099601962 4.3628635 7
2.7497098 -0.083158553 4.3589377 5.8499999
2.9996796 -0.090998046 4.3888869 6
8.0279951 -0.088723578 4.3272443 7
2.5833592 0.14125709 4.2162228 8.666667
2.6444097 0.1022736 4.3151321 8
2.8458126 0.12629718 4.3037038 8.333333
3.1026964 0.14720906 4.3462014 9
3.233757 0.1489314 4.3362961 8.5
8.0607882 0.17301522 4.2380633 8
2.5892854 0.35024336 4.263638 11.5
2.6942477 0.24994908 4.3182044 10.25
2.8816574 0.27067733 4.3300753 10.5
3.2301171 0.28897637 4.3652039 10.5
7.9870691 0.38312358 4.3595505 8
8.0305338 0.33173132 4.3090038 8
9.0688791 0.3293947 4.3356142 8
-5.8030252 0.48953381 4.2994776 8
-5.7903824 0.45213178 4.3880792 8
7.9800048 0.47199616 4.3228402 8
8.0303249 0.47351256 4.2763438 8.545455
9.097044 0.54587215 4.3544216 9
7.984683 0.68543494 4.2891722 9
8.0475178 0.70885575 4.2959666 9.5
8.2376118 0.74513531 4.2814922 9
8.8986788 0.77226073 4.3288765 10
9.0721588 0.74820548 4.3482389 10
7.992363 0.84672785 4.3259068 10
8.0836325 0.89480245 4.2905183 10.5625
-8.2778397 1.1214197 4.3373184 10
-7.8490391 1.1410698 4.3314147 10
-7.6297779 1.0106423 4.3428631 10
1.4828026 1.1453218 4.2105627 14
7.9756012 1.0728261 4.326077 11
8.0650454 1.0877424 4.2872458 11.178572
8.3157225 1.0543437 4.2777634 10
-13.581354 1.22484 4.3688564 9
-8.9118423 1.2974317 4.2770529 10
7.9879398 1.2851872 4.2990751 11.5
8.0567741 1.3329327 4.3037882 12.384615
-13.610328 1.4445361 4.2959967 9
-8.9309464 1.514065 4.267529 10.4
7.9864535 1.483422 4.2939444 12
8.0282612 1.4931188 4.3288918 13
17.82336 1.4506587 4.2238255 9
-13.589091 1.7042663 4.2954154 10
-8.9970989 1.7836751 4.2160101 11
-8.0556364 1.6643639 4.3537874 11
-13.589787 1.9617913 4.3844857 10
-9.0054903 1.9188404 4.2088823 11
-8.9687223 1.9092712 4.2641163 11.25
17.840157 1.8397189 4.218667 10
-13.60611 2.1713934 4.2368846 11
-13.599747 2.1797106 4.3385668 11
-8.991827 2.1895125 4.2795391 12
-8.1911583 2.0692301 4.3783112 12
-13.621343 2.5588052 4.376493 11
-13.593691 2.4694252 4.37111 11
-13.610633 2.6557858 4.2573795 11.666667
-13.575262 2.689146 4.3460789 12
-13.638569 3.1349161 4.2361522 13
-13.545583 3.1479228 4.204761 13
-13.355089 3.1056561 4.2308059 13
-3.1123121 -0.71771818 4.5637054 4
8.0584507 -0.65010196 4.4017549 3.5
-3.0895822 -0.50050086 4.547091 5
-1.2445376 -0.27558863 4.5176826 5
0.87825149 -0.30555245 4.5722795 5
2.4798903 -0.24557355 4.516747 4
3.1007895 -0.27665329 4.4210949 3.6666667
3.2777233 -0.24215239 4.4381623 4
4.5443583 -0.25582469 4.5996695 5
7.9494667 -0.25994599 4.5554557 6
8.0296011 -0.22909352 4.461834 6
-5.7205658 -0.13290779 4.5263839 7
-3.0752306 -0.083164953 4.565855 6.8000002
-2.9105787 -0.063890174 4.5873361 7
-2.7905908 -0.025008041 4.5972118 7
-1.6042147 -0.063013539 4.5545144 7
-1.5353526 -0.048450675 4.5590868 6.7857141
0.92911029 -0.12279499 4.582952 6.25
2.4932635 -0.16885518 4.518805 5
3.1639493 -0.083665073 4.4290099 6
3.2729757 -0.13067484 4.4224553 5.5
7.9739723 -0.072014742 4.5236969 7
-1.570027 0.097649254 4.556149 7.8333335
7.9535961 0.17596044 4.533401 8
-3.2050748 0.3374244 4.5648079 8
-3.0609787 0.32456678 4.5838804 8.1000004
-2.7704048 0.31429929 4.5971913 8
-1.6128403 0.30453554 4.5640545 8.625
-1.5849044 0.29455528 4.5755019 8.5
2.7356582 0.38923585 4.4871798 12
3.0958672 0.39248016 4.5682507 11
-5.7373071 0.47784683 4.5190234 8
-3.2438707 0.55547208 4.5828133 9
-3.1065025 0.51698691 4.5835285 9
-1.6033578 0.50082201 4.5908198 10.166667
-1.5778764 0.48204511 4.5831132 9.7142859
2.7246728 0.47165966 4.4839482 12.854167
3.1008666 0.52071071 4.5744123 12.5
3.2631841 0.54870939 4.5618644 13.5
3.8198938 0.48604977 4.595737 12
7.9851727 0.45270279 4.4421396 8
-5.8112121 0.60695207 4.4390583 9
-5.7501345 0.71913445 4.5043125 9
-3.4166584 0.69744813 4.5959826 10
-3.2707863 0.7010684 4.5782743 10
-3.1448612 0.70620531 4.5854049 10
-6.8251772 0.9515667 4.4548607 10
-6.319653 0.97612882 4.4695401 10
-5.8933573 0.84210533 4.4797249 9.4444447
-5.712925 0.83278859 4.5700307 9.5
-3.4115417 0.8703025 4.5902448 11
-3.2665372 0.90237933 4.582562 11.2
-3.1381676 0.89981508 4.5724211 10.5
8.0160236 0.8963623 4.4737749 11
-12.110102 1.153455 4.5935483 9
-6.2759905 1.0795758 4.4976535 10.5
-6.0189295 1.1752769 4.5356927 11
-5.8842926 1.0914451 4.5293975 10.166667
-5.7304544 1.0869007 4.5576544 10.3
-3.4152935 1.1046263 4.5871553 12
-3.2546177 1.1152315 4.5769682 12
-3.1354673 1.106245 4.5747819 11.333333
7.9953904 1.0466642 4.4767361 11
8.0007725 1.1825382 4.4929466 13
-13.5951 1.3895028 4.4017158 9
-12.112466 1.2506618 4.5386467 9
-7.667964 1.3108103 4.417551 11
-7.3713236 1.26091 4.4033689 10
-6.8673186 1.2546372 4.4986596 11
-6.327251 1.2632686 4.4892492 11
-5.8827577 1.3412889 4.5445447 11.4
-5.7429008 1.3070184 4.5571003 11.5
-3.4304402 1.2773429 4.5933437 13.25
-3.261198 1.3431553 4.5828986 12.333333
-3.1559803 1.2941762 4.5809884 12
-7.1898041 1.5852219 4.4184132 11
-6.8801565 1.5443363 4.5000043 12
-6.303894 1.4870808 4.5004416 12
-6.0770297 1.4739451 4.5103378 11.666667
-5.8525887 1.5476763 4.5458288 12
-5.7275252 1.5181787 4.551405 12.111111
-3.4182425 1.4984412 4.5750623 14
-3.1545525 1.4495558 4.5952458 13
7.9913416 1.4952441 4.47119 13
-12.083326 1.7513814 4.5306034 10
-7.6831217 1.6167653 4.4204445 12
-6.4006977 1.7651536 4.4912701 13
-6.340519 1.6601967 4.516923 13
-6.1447482 1.6819476 4.5107169 12.333333
-5.8602047 1.7065378 4.5562701 12
-5.7086964 1.7362487 4.5723066 12
-3.1800957 1.6276792 4.5593019 13
17.813913 1.7278562 4.5812683 10
-7.7059941 1.9213896 4.4256387 13
-7.3151045 1.967216 4.442369 12
-6.8946953 1.8312545 4.5007133 13
-6.2948856 1.8502417 4.4828162 13
-6.159101 1.977035 4.5111275 14
-5.8730974 1.8982253 4.5345993 13
-5.7061243 1.8342869 4.5457978 12.75
-12.701904 2.0252097 4.5163102 11
-11.941849 2.0152462 4.5332389 11
-6.9167352 2.1335082 4.5079808 14
-6.318594 2.1449752 4.4854617 14
-5.8425574 2.1455946 4.5300694 13
-5.6991806 2.1093342 4.5789595 13.166667
-7.2462311 2.3086143 4.4174504 13
-6.0152287 2.2837605 4.4491529 14
-5.6546259 2.2873104 4.5405455 14
-5.5898323 2.3446534 4.4830322 14
17.806396 2.2254074 4.5944929 11
-12.624555 2.4771252 4.4839873 12
-11.9727 2.4767516 4.5307665 12
-5.7259922 2.4767613 4.508513 14
-5.6643744 -0.98401248 4.6820669 3
-2.3934605 -0.83013296 4.7888546 3
-2.4460466 -0.63584155 4.6932731 4
-2.7411847 -0.47429472 4.780653 4
-2.4470918 -0.51118344 4.7563448 3.5
0.90363628 -0.44080091 4.6428456 3
5.4735937 -0.47333553 4.7557344 4
-2.4398961 -0.22390753 4.7312641 5.5
0.89245981 -0.2919589 4.6232429 4.2857141
3.7557352 -0.21920587 4.6918607 4.8333335
3.8095193 -0.24281156 4.6452141 4.5
5.467411 -0.28008744 4.7183337 5
7.461484 -0.24461856 4.7016015 6
7.8705854 -0.24020383 4.7583838 6
-5.6048937 -0.098629825 4.7818279 7
-2.8122711 -0.19689758 4.6638565 6
-2.7472098 -0.081254937 4.6825099 6.590909
-2.4338069 -0.022689119 4.7241888 7
-2.3249531 -0.048933454 4.7586193 6.75
-2.1636536 -0.11870414 4.7744384 6.3333335
-1.9809289 -0.061072763 4.7908859 7
-1.5844448 -0.080388777 4.6157627 6.5
-1.2164122 -0.17439346 4.6369543 6
-1.1241634 -0.097546861 4.6464744 6.5
0.91163027 -0.082925007 4.6271806 6.3000002
3.752914 -0.098306075 4.670403 6.166667
3.816968 -0.067761295 4.6381211 6.5
4.5839686 -0.069554135 4.66012 6.75
4.6125512 -0.091316983 4.6707964 7
5.4790282 -0.081617594 4.6936083 6.6428571
6.9486742 -0.19615003 4.7766972 6
7.0914083 -0.071497954 4.7750306 7
7.4753036 -0.10455916 4.7474694 6.6666665
7.9410605 -0.11341048 4.7633018 7
-2.7198458 0.068829887 4.6753683 7.5
-2.3807597 0.01376367 4.730854 7
-1.9537086 0.016842617 4.7937717 7
3.833025 0.14803571 4.6204782 8
4.5887084 0.09458027 4.6861477 8
5.5124254 0.18336862 4.6401348 8
-3.4455371 0.2819882 4.6123714 8
-2.8463945 0.26112637 4.6434565 8
-2.7134376 0.33380142 4.7016468 8.2222223
-2.4810686 0.28447449 4.7068825 8
-2.3333688 0.347103 4.7643843 8.541666
-2.1042025 0.30457893 4.7875042 8.1999998
-1.994344 0.23012494 4.7692761 8
-1.6044679 0.37621307 4.6011009 9.5
-1.597537 0.33839017 4.6000795 9
-1.106769 0.2779533 4.6705399 8.4499998
3.7559772 0.33431605 4.7387924 10
3.8293502 0.29579949 4.6178269 9.666667
4.598176 0.33940801 4.7061424 9.5
4.6145482 0.31780905 4.6517277 8.5
5.4902196 0.2887429 4.6928577 8.5
-5.6566582 0.46482581 4.6368041 8
-3.4550457 0.49328965 4.6267672 9.1999998
-3.0636435 0.48389482 4.6092725 9
-2.9452541 0.52926415 4.6454577 9.5
-2.7162387 0.50983495 4.6956124 9.3571424
-2.4470322 0.41495591 4.7374344 9
-2.2992091 0.51927829 4.7689786 9.6999998
-2.0725484 0.50490153 4.7706819 9.375
-1.4927268 0.51822418 4.6370778 10.5
-1.2299166 0.51633954 4.6800766 10
-1.1225903 0.52159953 4.6788006 10.25
3.7736123 0.43495327 4.7097435 11
3.8244665 0.50787485 4.6186042 12
4.5956154 0.49768177 4.6368036 10
4.6307259 0.47072294 4.6648884 10.5
5.5000162 0.47790897 4.6662488 9.875
7.2732162 0.41893181 4.7831697 9
7.4274378 0.4640362 4.6737857 9
7.9912462 0.48093 4.7819319 9
-5.6377091 0.63380998 4.75106 9
-5.5959373 0.7537275 4.7969894 9
-3.439425 0.69554567 4.6180668 10.375
-3.3108869 0.77288914 4.6075301 11
-3.0472684 0.66296446 4.6337495 10
-2.9717741 0.75762433 4.6690617 10.666667
-2.7060776 0.7112546 4.7058005 10.523809
-2.4408846 0.73327786 4.7265291 10.666667
-2.2508683 0.71272022 4.7506738 10.722222
-2.159215 0.69970244 4.7822046 10.75
-1.9167405 0.66927814 4.7820163 11
-1.7188752 0.69492447 4.7885208 11
-1.4431189 0.60483778 4.6311021 11
-1.2378938 0.64702439 4.6692638 11
7.9863224 0.64899832 4.7530971 9.333333
-5.6436868 0.92000914 4.6404653 10
-3.4485307 0.92561537 4.6195393 11.75
-3.2315228 0.92082775 4.6147513 12
-3.0751927 0.92603755 4.6327238 11.25
-2.90573 0.94359237 4.657608 11.75
-2.6873925 0.92816037 4.7415071 11.821428
-2.4450934 0.94685781 4.7201233 12.25
-2.2625866 0.90511769 4.7399335 12.071428
-2.1110575 0.87300676 4.7681632 11.25
-1.8720657 0.89955729 4.777112 12.166667
-1.6503868 0.86181861 4.7836976 13
-1.5899872 0.95779485 4.7926826 12.5
7.990037 0.89710194 4.7681785 10
-5.6631904 1.103476 4.6176891 10.666667
-3.4594293 1.1283062 4.6124415 13
-3.286258 1.0989559 4.6176319 12.5
-3.0566511 1.0723457 4.633328 11.666667
-2.9277928 1.1427174 4.6704669 12.666667
-2.6936786 1.1206739 4.7273116 12.763158
-2.4924641 1.1244051 4.7559872 13.75
-2.2384837 1.0967026 4.7460265 13.375
-2.1303754 1.1122539 4.765399 12.85
-1.8888922 1.1023791 4.7732463 13.25
-1.6624726 1.1371914 4.7863111 14
-5.6548028 1.2939082 4.64891 11.666667
-3.4862986 1.363996 4.6109533 14
-3.2686813 1.2409909 4.6076293 14
-3.0519135 1.2972772 4.6513438 13.6
-2.9646051 1.2923861 4.6827226 14
-2.7032096 1.2957263 4.7141018 13.333333
-2.4741549 1.2456272 4.7150145 12.75
-2.2336671 1.345333 4.7465973 13.5
-2.1270564 1.2993331 4.7602401 13.5
-1.9732361 1.2129247 4.7805462 13
-1.6451973 1.2030002 4.771287 14
7.9683552 1.3367409 4.7395034 11
-5.6550741 1.4823456 4.6623888 11.8
-3.2089467 1.5290809 4.6069479 14
-3.1021197 1.5159063 4.6331339 13.5
-2.6768348 1.4831904 4.7394304 14
-2.4682434 1.5140945 4.753087 13.75
-2.1084466 1.4124515 4.7432289 13.5
5.2897325 1.5357012 4.7527442 14
-5.6430821 1.7437536 4.6898856 13
-3.3294234 1.6702327 4.6075792 14
-2.5005713 1.6765001 4.7247725 14
-2.2421517 1.6342669 4.7213516 14
-5.6553717 1.8800757 4.6723714 13.6
-3.1620598 1.8423189 4.6155105 14
-5.6514444 2.2340112 4.7087231 14
-5.6078796 -0.74787295 4.8319492 4
-2.2886324 -0.6487388 4.8023372 2.5
-2.3768744 -0.51888055 4.8249564 3.5
-2.6951408 -0.20373823 4.8318114 6
0.55512011 -0.21976739 4.884901 4.5
0.68390638 -0.3263326 4.9542737 3.8333333
5.3989315 -0.24983807 4.8773966 5.5
5.4461899 -0.23196891 4.9186993 6
7.0302954 -0.22850968 4.8261156 6
-5.4194012 -0.13777956 4.9429412 7
-2.6902914 -0.077781186 4.8272696 6.75
-2.0802774 -0.05470068 4.8181686 7
-1.8846222 -0.10453001 4.8264699 6.5
0.76028514 -0.072785497 4.9859142 6.25
5.4532952 -0.03646332 4.8843083 7
6.99016 -0.061385255 4.9030905 7
7.0625129 -0.048434094 4.8399072 7
7.9172463 -0.084491767 4.8701863 7
3.7832572 0.17155856 4.853549 8
5.4247074 0.15026492 4.9669776 8
-5.5890102 0.20549722 4.8639164 8
-2.6613564 0.31668591 4.8239956 8.25
-2.121357 0.32307014 4.8150291 8.583333
-1.7907498 0.31209368 4.8249378 8.5
3.7913952 0.32273364 4.8706484 9.5
3.8008804 0.34762707 4.9553614 10
4.59904 0.31372613 4.865839 9
5.4609103 0.29837286 4.8913021 8
7.054522 0.30093053 4.8690529 8
7.9349442 0.34430245 4.8802185 8
-5.6090403 0.50496769 4.8243494 8
-5.4914479 0.44761437 4.910388 8
-5.3997545 0.46867678 4.9760275 8
-2.6622131 0.50918424 4.8175306 9.5500002
-2.3721645 0.51390797 4.8169799 10
-2.116107 0.49970013 4.8303099 9.75
-1.795614 0.55793941 4.8321609 10
-1.0907264 0.59946537 4.9232559 10
0.56676459 0.591304 4.9506216 10
3.7957046 0.44205257 4.9520388 11
4.6061964 0.43221793 4.9065042 10
5.4274216 0.51976669 4.8927412 9.75
6.9953647 0.41979775 4.9962564 8
7.0764632 0.49117988 4.8775196 8.9666662
7.3763056 0.59334266 4.8199105 10
7.9271369 0.4764753 4.8971462 8.3999996
-5.6305966 0.63983905 4.8317537 9
-5.5846419 0.72955018 4.8712802 9
-2.6530724 0.7462551 4.8187571 10.916667
-2.3977528 0.65555763 4.8348837 11
-2.0996819 0.71899796 4.818593 11.5
-1.6890526 0.68397003 4.8127551 11.3
-1.4962722 0.77122587 4.8864965 11.642858
-1.3733712 0.75023168 4.8898296 11
-1.0404166 0.72612536 4.9420438 11.25
-0.89984655 0.73599565 4.9125094 11.571428
-0.65694439 0.71256477 4.8846059 11.333333
-0.47748232 0.73314428 4.947504 11.333333
-0.29391459 0.75977761 4.9280829 12
-0.078840286 0.7247498 4.9672346 11.5
0.086808734 0.76194286 4.9201436 12
0.28938904 0.726318 4.9230461 11.8
0.52786505 0.74044669 4.9446187 11.6875
0.6553911 0.71480054 4.9726396 11.5
1.4870937 0.69965529 4.9822016 11
5.4455872 0.69244862 4.9634004 10
7.0901475 0.72116941 4.8769217 10.033334
7.7528934 0.6678555 4.9058905 10
7.9196301 0.73392504 4.8920164 9.666667
-5.6108918 0.85914868 4.9094348 10
-5.5679054 0.87506968 4.9270935 9.833333
-5.3750439 0.9894504 4.9768171 10
-2.6602979 0.89191133 4.8240995 12
-2.1156166 0.92432451 4.8151431 13
-1.6033204 0.9738878 4.8084178 14
-1.4868932 0.93273991 4.8839979 12.6
-1.3376623 0.90558648 4.8854885 12
-1.0803455 0.89874977 4.9138827 12.392858
-0.85551649 0.93928295 4.8842812 12.916667
-0.67198646 0.89133024 4.8829947 12.7
-0.52470762 0.91083568 4.9274611 12.555555
-0.29427305 0.936014 4.936677 13.5
-0.076645225 0.89679319 4.9658809 12.75
0.091592625 0.93618798 4.9360828 13.25
0.30835548 0.90366316 4.9288678 13.071428
0.53031808 0.90356028 4.95397 12.85
0.68014187 0.94661611 4.9596915 13.5
5.454381 0.94885635 4.9397211 11
7.0822787 0.91499048 4.8726058 10.923077
7.7219815 0.87149614 4.9304295 11
7.9142332 0.90494233 4.898366 11
-5.6363616 1.1039155 4.9631758 10.714286
-2.6468084 1.0931144 4.8155336 13.4
-2.1333995 1.1093584 4.8226552 13.666667
-1.4741046 1.1215267 4.8738317 13.611111
-1.3381032 1.1434448 4.8783312 13.5
-1.0521483 1.0937539 4.9188871 13.277778
-0.94155341 1.1108087 4.9129739 14
-0.63988948 1.0922319 4.8689504 13.666667
-0.56892061 1.1159987 4.9012985 13.8
-0.070984885 1.0672016 4.9635787 13.8
0.11516849 1.0421877 4.9347696 14
0.28022504 1.0269144 4.9310417 14
0.56266475 1.045435 4.9461584 13.866667
5.3934512 1.1575847 4.8099856 12
5.4079566 1.0900509 4.8526301 12
7.089416 1.0850883 4.8833909 12
7.7258825 1.0626047 4.9409323 12
7.9351487 1.0797541 4.902401 11.285714
-5.6333771 1.3034682 4.9098477 11.333333
-2.1354904 1.3611789 4.8221803 14
-1.4826043 1.279719 4.874754 14
-1.09407 1.2554717 4.879847 13.75
-0.8074007 1.327921 4.8592668 14
1.4765618 1.2307234 4.9832339 14
5.4053369 1.2760577 4.814992 13
6.9683285 1.3081677 4.9610219 14
7.0681963 1.2543924 4.8925867 12.5
7.323637 1.2690088 4.8039889 14
7.7768345 1.2596314 4.9498501 13
7.9546151 1.3531766 4.8977342 12.625
-5.6369867 1.4323846 4.9094687 11.6
-1.092669 1.45524 4.8222809 14
5.4332452 1.4833585 4.8345337 14
7.6041784 1.428368 4.9816294 14
7.9307389 1.5008798 4.8887839 12.333333
8.0033445 1.416232 4.8078923 14
-5.6435285 1.696905 4.8691669 12.666667
-5.6577554 1.8817182 4.8814917 12.5
-5.6682677 2.1280169 4.8974133 13
17.417894 2.6811464 4.9079895 12
6.9578638 -0.20612372 5.1891308 6
-5.4328289 -0.041414164 5.145164 7
5.3884478 -0.097897962 5.0651188 6.5
5.4299059 -0.088696331 5.1258364 7
6.9434719 -0.083499819 5.1029205 7
0.90801859 0.19683848 5.0892687 8
3.7978482 0.15658373 5.012702 8
5.4327331 0.12995023 5.1056252 8
6.9411368 0.13844433 5.1888037 8
-5.3539948 0.39947316 5.1330805 8
0.79724741 0.39570481 5.0316095 10
0.90666389 0.32745185 5.0645132 9.1000004
1.0601749 0.38018861 5.0380979 9
3.8000515 0.25810534 5.0234265 9
5.392652 0.21404387 5.0654774 8
5.4594021 0.34965941 5.1373525 9
6.9908576 0.34039637 5.0725951 8
-5.3646183 0.44952953 5.1148939 8
0.89737654 0.55634302 5.0830393 11.25
1.0530419 0.53126597 5.0253601 10.2
1.2248675 0.56930596 5.0529947 10.5
5.3211789 0.58942831 5.0345335 9
5.4382148 0.51682305 5.0909629 9.333333
6.9867792 0.42849016 5.0863171 8
7.0281954 0.47864664 5.0745711 9
-5.4446788 0.71827453 5.0640774 9
-5.3941617 0.67095053 5.0073471 9
0.43230426 0.75743747 5.0007544 12
0.78796244 0.75470144 5.024703 13.5
0.9053182 0.75657231 5.0801272 12.136364
1.0933112 0.70902932 5.0517402 11.428572
1.2936764 0.72243011 5.0524063 11.375
1.4452549 0.73600292 5.044148 11.5
5.535738 0.79081529 5.0094295 10
6.9767118 0.69308805 5.0955 9.583333
7.0016165 0.6003201 5.0466461 9
17.559399 0.70733231 5.1646233 8
-5.4951787 0.86159897 5.0147967 9.666667
0.67390925 0.80101955 5.0032425 14
0.88376063 0.91589367 5.0712347 13.125
1.0777706 0.9444111 5.0413718 13.416667
1.2634349 0.90474105 5.0539532 13.166667
1.4588318 0.90373528 5.0543633 12.5
5.5698829 0.81440294 5.0724211 10
6.9776769 0.98538506 5.1676083 11
7.016716 0.95338583 5.100337 10.6
17.584002 0.85844272 5.1240864 8
17.749676 0.93865579 5.1968331 8
-5.6244593 1.1004813 5.075273 10.857142
-5.5954647 1.0249655 5.024847 10
0.88732213 1.0698783 5.0695519 13.75
1.2595773 1.086567 5.0578141 13.833333
1.4713012 1.0979478 5.0728736 13.625
6.9597721 1.1436539 5.0406528 13
7.0146585 1.15082 5.1125717 12
-5.6194372 1.3272877 5.0800018 11.555555
-5.5993629 1.3483717 5.1608071 12
0.86486155 1.265065 5.0561485 14
1.4542586 1.3533888 5.060236 14
6.9852681 1.2446967 5.1551733 11
7.0234642 1.262652 5.0942702 11.666667
17.821001 1.2395641 5.0457458 9
-5.6235595 1.5397639 5.1035037 12.375
-5.5920205 1.5815338 5.1473389 13
17.772326 1.4449728 5.1978188 9
-5.6332335 1.661502 5.0882473 12.5
-5.5973597 1.6122808 5.1301365 12
-5.623425 1.8789781 5.1157031 13.666667
-5.5925312 1.8594794 5.1223168 13.666667
-5.6253805 2.1359169 5.1230245 13.5
-5.5764036 2.0894053 5.1110587 14
17.748123 2.168664 5.1485796 10
-5.6003299 2.233026 5.142005 14
-5.5109901 2.3 5.136692 14
17.754389 2.2415299 5.1629524 11
17.384169 2.7224212 5.0790768 11
17.415394 2.6857674 5.0028386 12
7.0371733 -0.72916794 5.2631068 3
7.0200758 -0.57628977 5.3425932 4
7.026289 -0.24887827 5.3931637 6
6.9651251 -0.058744784 5.3024616 7
6.9863901 0.36597931 5.3519306 8
7.0290718 0.2978301 5.2224035 8
6.9933939 0.49671781 5.2984838 8.5
7.033361 0.53508496 5.2710252 9.5
6.975122 0.76422375 5.2882218 10
7.0269156 0.73586494 5.303884 10.625
6.9924536 0.89261234 5.2849035 11
7.0281277 0.8831563 5.3316617 11
