# .PCD v0.7 - Point Cloud Data file format
VERSION 0.7
FIELDS x y z intensity
SIZE 4 4 4 4
TYPE F F F F
COUNT 1 1 1 1
WIDTH 1229
HEIGHT 1
VIEWPOINT 0 0 0 1 0 0 0
POINTS 1229
DATA ascii
-17.110998 2.3583615 -1.4784682 10.083
-14.285759 2.1992264 -1.4087715 10.0915
-8.6317101 2.2786112 -1.4568985 14.033
-6.9176941 2.2094629 -1.3910801 13.08325
-5.6828871 2.268158 -1.469063 13.584499
-5.2373247 2.3411093 -1.5159492 14.117249
10.784631 2.0714116 -1.4171815 12.1165
-13.421077 2.5420277 -1.4894549 11.717999
-11.060857 2.4921513 -1.3559144 12.796125
-9.9445286 2.4051068 -1.2299913 12.125
-9.2993383 2.5191655 -1.5449829 12.349625
-8.9838762 2.6894164 -1.2915672 13.1245
-5.269309 2.5182848 -1.3920259 14.08675
9.2892141 2.4783709 -1.4488703 14.119
10.547457 2.539211 -1.3861382 14.0925
10.804813 2.4510224 -1.4085126 13.1165
11.727785 2.6620677 -1.5466 13.118
12.271177 2.7220697 -1.5760665 13.1035
13.787224 2.6072631 -1.4799538 12.115999
-8.9684105 2.8857851 -1.4724725 13.106
12.63654 2.8566504 -1.4799931 13.116751
13.06988 2.9090867 -1.3628988 13.11475
-1.2473044 -0.25366917 -1.1872401 6
-0.87613189 -0.25577632 -0.98396373 5
-0.60636473 -0.26370144 -0.89235318 6
1.2407191 -0.35055539 -0.95353156 4
1.9483731 -0.30177036 -1.1652181 4
2.50666 -0.25222757 -0.82173967 5
3.951607 -0.2415254 -1.0671922 5
4.3185925 -0.19177677 -0.9424662 5.5
4.4597044 -0.1757217 -1.0074154 5.75
1.4920838 0.080042996 -0.91851914 8.1002998
1.6309502 0.067717254 -0.94328284 8.1199999
4.2923036 0.27398539 -0.94620931 9.0229015
4.255208 0.53083098 -0.9166829 10.152195
4.592351 0.55764592 -0.89765 10.967302
4.961401 0.56404018 -0.95101583 11.094313
4.9987483 0.82244539 -0.89529157 11.1215
-28.025421 1.6381227 -1.1331551 8.0939999
-24.621407 2.387795 -0.87614679 9.0845003
-22.851551 2.3102643 -1.0582361 9.0935001
-17.073111 2.3477225 -1.1089761 10.0835
-14.361672 2.185353 -1.0403569 10.571667
-12.414863 2.2538497 -0.81065202 11.083
-10.582111 2.1827652 -1.0112009 11.1155
-8.5834093 2.2581875 -0.88675165 14.033916
-5.8053203 2.2576251 -1.0222394 13.585625
-5.2189751 2.301188 -0.99934149 14.1185
-18.808283 2.7233014 -0.95580006 10.093
-13.421867 2.5501559 -0.87578982 12.035251
-11.228878 2.5014689 -0.86965805 13.0355
-11.083171 2.5040462 -1.0909919 13.034333
-9.3402672 2.5499885 -1.0141327 12.586
-9.07302 2.4925971 -1.1209872 12.09
9.8071003 2.5878949 -1.1255723 14.118
10.288794 2.6843033 -1.0354751 14.116
10.692254 2.5383067 -0.9809742 14.0915
-9.0030127 2.9327433 -1.1111465 13.09
13.147699 2.981097 -0.96972156 13.355813
-0.93740177 -0.059144303 -0.53074056 6.4583335
-0.67696691 -0.23172192 -0.5809781 6
-0.031222582 -0.25116774 -0.42118573 5
0.31573033 -0.25043449 -0.77311563 5
0.76811743 -0.2617451 -0.45960647 5
1.1978985 -0.069652006 -0.46591163 6.5
1.3552034 -0.11193863 -0.45496434 6.0476193
1.708766 -0.11356262 -0.56123185 6.5
2.6926224 -0.26928696 -0.56655747 3.4444447
3.0148902 -0.26415798 -0.53578746 3.25
3.319011 -0.27037829 -0.72748482 3.8
3.7999992 -0.27525166 -0.61212885 2.3703701
4.2846494 -0.15938428 -0.50798452 5.7573891
4.9581518 -0.1062061 -0.51792216 6.5
-0.92711663 0.065275565 -0.48085338 8.3504372
-0.69517863 0.058622707 -0.46012422 8.5853119
1.1744717 0.037463799 -0.522964 8.0756655
1.3496358 0.055490881 -0.59820938 8.08325
1.6503761 0.061656389 -0.6038056 8.0619373
4.2739954 0.25393659 -0.54226083 9.1313868
4.5445666 0.28643939 -0.64993215 8.762084
4.961669 0.28675598 -0.47613645 8.7996254
4.2125468 0.52519757 -0.5667032 10.285346
4.5737348 0.62268084 -0.55568326 11.885144
4.9883962 0.49958086 -0.56534356 10.799722
5.0439234 0.85986215 -0.44368362 12.099
5.23423 0.86582112 -0.62495434 11.604
-17.256918 2.3432703 -0.69271469 10.088
-14.341479 2.1774974 -0.76375216 10.575937
-13.005696 2.3790143 -0.46812987 11.0875
-12.7257 2.2974248 -0.57612252 11.0835
-10.600172 2.1998303 -0.69125396 11.107834
-8.9970036 2.1983194 -0.53208876 12.08625
-8.6658096 2.2643836 -0.5187034 14.035
-6.9087825 2.3215554 -0.58465397 14.0815
-6.682816 2.2699473 -0.69964111 14.081
-5.9324923 2.26406 -0.57378626 14.0845
-5.2379503 2.2764978 -0.4590711 14.119875
8.7982864 2.2211814 -0.50104499 14.1035
8.9006414 2.2850249 -0.45477584 14.1135
-13.390741 2.5683653 -0.65928745 12.035
-11.139165 2.5021412 -0.58131361 12.844999
-9.6651192 2.5123746 -0.64581448 12.116
-9.5133171 2.7232022 -0.76458287 13.086
-8.519846 2.7334766 -0.77294916 13.1155
-7.8561611 2.7430394 -0.62334442 14.0855
-5.3230209 2.4708002 -0.76083136 14.08825
10.385496 2.7077291 -0.57404339 14.1165
-13.285686 2.9789577 -0.52284956 12.0875
-9.0374546 2.8410521 -0.58982652 13.116
13.100327 2.917846 -0.6305815 13.11425
4.3518848 -0.48327729 -0.15196943 3.5
4.9858494 -0.51944709 -0.068146229 3
-0.93331242 -0.068700038 -0.24420272 5.6606064
-0.73560762 -0.13159876 -0.17337438 5.4722223
-0.11991453 -0.25147542 -0.31660986 5
0.69158387 -0.26250738 -0.25646085 5
1.0582533 -0.25538188 -0.10148466 0
1.4006186 -0.21839786 -0.26968938 2.95
1.7119417 -0.26849756 -0.083064876 1.6666666
2.1743772 -0.26444295 -0.042373061 1.3333334
2.6957119 -0.26903284 -0.19062793 2.1666667
2.9204845 -0.27742234 -0.10332936 1.75
3.4293821 -0.25935394 -0.28925586 1.888889
3.7298598 -0.27395859 -0.18761687 3
4.2732525 -0.17218205 -0.2507101 3.9833333
4.9732108 -0.10846401 -0.08339709 5.875
-0.91105026 0.076195091 -0.21311027 8.4764013
-0.72348857 0.060526814 -0.13599269 8.3149996
4.3103371 0.24185368 -0.30920234 9.9307127
4.5292835 0.21730393 -0.10883573 9.0470209
4.9757333 0.26420781 -0.16142498 9.6547499
4.208806 0.51320803 -0.28644538 11.079391
4.5831332 0.58490556 -0.25107408 11.732916
4.9443493 0.5156709 -0.12660597 11.743944
5.0982118 0.89515227 -0.21055663 12.430791
5.2888618 0.98093891 -0.28928912 12.1135
-24.669548 2.3710737 -0.37270805 9.1066666
-16.565981 2.3414719 -0.12019821 10.1065
-10.696655 2.205214 -0.18381985 11.108666
-8.7064409 2.2625258 -0.17800601 14.036125
-6.7425613 2.2549732 -0.082731664 14.08275
-5.2538023 2.2097499 -0.29347479 14.125
8.7404118 2.2418473 -0.28125584 14.113
8.8050652 2.2117157 -0.33364964 14.103
11.776127 2.2244148 -0.087095439 12.1135
-16.525043 2.4814198 -0.12947479 10.565375
-14.018219 2.5260556 -0.3031683 11.088
-13.451534 2.5846632 -0.077921122 11.722084
-11.150326 2.4777753 -0.26742518 13.03675
-10.694683 2.4184632 -0.3296414 12.55925
-9.7017059 2.5083368 -0.055380046 12.117
-9.3080645 2.5132263 -0.21828824 12.5875
-5.357604 2.429841 -0.14620471 14.08975
10.251823 2.6146812 -0.22824723 14.108749
-16.020348 2.8072016 -0.21008003 11.0845
-13.308551 2.9758706 -0.22532785 12.088
-11.419806 3.11572 -0.26144862 13.0875
-9.0820475 3.0225139 -0.041889071 14.08725
13.083853 2.9374008 -0.14873101 13.354313
-0.79977226 -0.53289467 0.37692255 4
4.2519093 -0.45604935 0.069411039 3.5
4.8832579 -0.48657483 0.27825868 4.5
-0.92992318 -0.11639239 0.14225808 5.3838382
-0.77651185 -0.13654998 0.21119694 6
0.65708643 -0.26454088 0.18120421 3.6666667
1.0888913 -0.25483447 0.26385015 1.3333334
1.3464378 -0.27313909 0.1664878 2.4444444
1.9639161 -0.24553105 0.15725589 2.5
2.0025475 -0.24039616 0.25955504 0
2.5826511 -0.27126792 0.20763431 1.5
2.969362 -0.25973257 0.23128833 1.375
3.4046073 -0.28226343 0.070979021 2.3333335
3.8019753 -0.25971362 0.33565295 1.4444445
4.2533054 -0.1779072 0.11442882 4.7802472
4.5503263 -0.15172724 0.20307401 3.5946429
4.9219666 -0.12085558 0.20349634 5.1366072
-0.89154834 0.071490116 0.14190049 8.4874125
-0.76245064 0.076296419 0.23596509 8.5843792
4.209043 0.090672642 0.16763921 8.613843
4.535295 0.17273654 0.15997808 8.7643805
4.9306703 0.2708253 0.22007044 10.049989
4.2044387 0.52447122 0.18479475 11.375261
4.6538768 0.6213721 0.193579 11.749091
4.9044261 0.54465753 0.27697852 11.755572
4.9480276 0.8537482 0.39163971 14.09325
5.3216705 0.97033036 0.015613556 12.106
-27.910538 1.5153627 0.11069191 8.118
-27.939083 1.6353394 0.14039481 8.09025
-25.854568 2.3788314 0.057201743 9.0895004
-23.239992 2.3348625 0.076460361 9.0944996
-16.653145 2.2728829 0.17227626 10.087
-5.2815447 2.3319447 0.11640126 14.11675
8.65205 2.2289195 0.11106451 14.112625
8.8717155 2.2068708 0.033866286 14.102
11.772589 2.22119 0.13666974 12.113
-27.699598 2.6457224 0.1473598 9.1103334
-25.924147 2.4994845 0.074577093 9.0854998
-16.485991 2.5472102 0.071865112 11.036875
-15.825338 2.7726173 0.14150715 11.085
-13.420618 2.5847638 0.13641572 11.480451
-11.216558 2.493154 0.32923594 13.038
-11.177923 2.498666 0.13180639 12.798813
-9.4437904 2.5507555 0.10707057 13.084
-8.5690823 2.7649806 0.39220858 13.0925
-7.6238027 2.4726083 0.28511596 14.084
-6.8613424 2.4083183 0.012151003 13.091
-5.3945875 2.405256 0.36445451 14.091
10.29706 2.6223319 0.24232413 14.109
-9.0848198 2.8376729 0.095473886 13.11725
13.038547 2.8798583 0.17015527 13.110201
-12.276587 3.2097523 0.0098364949 14.036
-0.81240964 -0.53378755 0.46911693 4
4.6750183 -0.46090794 0.59781003 3.6481481
-0.9128598 -0.13331702 0.61966264 5.3134484
-0.77422804 -0.15252142 0.5381577 5.9691358
0.52570355 -0.26281846 0.51387852 3.175
0.92344874 -0.25701979 0.61463976 1.7222222
1.4126806 -0.27607948 0.58134574 1.625
1.7109854 -0.24948423 0.5963223 1.5
2.2900937 -0.23448385 0.57159328 0.39583334
2.580852 -0.28454942 0.56211835 1.3809525
2.9591777 -0.25243449 0.68605983 0
3.3488832 -0.26369944 0.5516836 2.5
4.2158699 -0.28776294 0.5117318 1.3333334
4.6502399 -0.14442062 0.6224575 5.0872145
4.8515086 -0.13016419 0.72931755 4.9473686
-0.92314988 0.090444162 0.60535288 8.7045927
-0.77304995 0.074267276 0.57558423 8.022727
4.6643391 0.091091409 0.60937244 8.4956837
4.8925457 0.24206254 0.5985859 9.6815348
4.8912187 0.57258201 0.57634628 11.645104
5.5680971 0.79859638 0.71984661 11.1025
4.9538178 0.90764588 0.59509021 12.419636
5.3806095 0.84049511 0.68343002 13.58975
5.6209373 0.92238373 0.78490722 12.59175
-27.91783 1.4807881 0.52385902 8.0900002
-25.936049 2.383657 0.57993281 9.0900002
-17.570662 2.3668699 0.54472089 10.0895
-8.9532223 2.3271885 0.64157921 14.037625
-8.7691116 2.2734375 0.68903041 14.0385
-8.3394394 2.2702215 0.6683768 12.353625
-5.3527665 2.3566103 0.63852859 14.109334
8.6804028 2.2381458 0.65333045 14.111125
-18.918165 2.7183099 0.46239209 10.0945
-13.780255 2.4777555 0.60969675 11.089251
-13.556257 2.547178 0.67017192 12.0385
-11.272948 2.5109653 0.66834295 13.0385
-11.183288 2.4926977 0.42337036 12.085
-8.1655331 2.6307244 0.66868871 13.11825
-7.688026 2.4853408 0.45403939 14.0845
10.358583 2.566853 0.49998295 14.1
-13.379278 2.9739633 0.62425959 12.089251
-12.253361 3.1674192 0.5856514 14.0385
-9.1455393 3.0183909 0.58118546 14.0885
13.038286 2.9357927 0.62033808 13.499649
15.809414 3.1249771 0.69943672 13.55275
4.729198 -0.52942079 0.98504221 3.25
4.881043 -0.59902954 0.98543 3.25
-0.83933204 -0.18490563 0.94396216 4.5171714
-0.72918063 -0.26111558 0.95416158 3.2222223
-0.18552804 -0.25934526 0.99285847 0
0.2411921 -0.26235238 1.1013283 1.6666666
0.65759379 -0.27315775 1.0176842 1.375
1.0074971 -0.26222226 1.0359607 0.75
1.3687375 -0.26485509 1.0143731 1.35
1.7292962 -0.24737613 1.0135375 0.83333331
2.1637909 -0.25717738 1.0665145 1.5
2.6573217 -0.26530871 1.0852979 1.7777778
2.9749203 -0.25886449 1.1068085 2.375
3.3334336 -0.25845581 0.98084044 2.9479167
3.7482104 -0.27491015 1.179049 1.3333334
4.1603723 -0.26942962 1.1500316 2
4.700623 -0.15554993 1.006407 4.123682
4.8413634 -0.18994115 1.0364606 3.9450576
-0.8396222 0.089874707 0.9660812 8.8186426
4.7484341 0.13382718 0.98117149 9.3678665
4.8619995 0.23080818 0.98572594 9.6596651
4.8886976 0.59493148 0.97839707 11.388922
4.9563141 0.92591983 0.81810081 13.593
5.4838281 0.90884763 0.83322215 14.0885
-8.7352076 2.2673626 0.94793195 14.039666
-8.252388 2.2928813 0.98085123 12.668786
-5.3913465 2.3618875 1.1109117 14.106125
8.6603441 2.2358696 0.93182302 14.111251
11.702261 2.1939087 0.85834581 12.1105
-17.81657 2.4218111 0.89354956 10.086
-13.499549 2.5827036 0.9691999 11.524861
-11.230978 2.5106268 0.89998984 12.56175
-8.3056793 2.6608458 1.0122604 13.119
-7.8466401 2.5196409 0.95602161 14.085751
10.419956 2.5693319 1.0217264 14.09875
14.571899 2.7828145 1.1326915 13.0795
-18.936707 2.911298 0.97901994 11.03825
-16.118402 2.8136747 0.91213411 11.086
-9.1635981 2.9462295 0.95281327 13.591499
15.788382 2.9619226 0.8709138 12.111
4.8547993 -0.57614797 1.3366861 3.3888891
-0.92598951 -0.15950672 1.3817329 4.4872537
-0.56551188 -0.27153653 1.286782 0.91666669
-0.14347874 -0.28644374 1.2903005 1
0.19043086 -0.27524227 1.3544719 1.3333334
0.55507737 -0.26624489 1.4139109 1.8571428
1.1150904 -0.26134846 1.338088 1.5833333
1.3917387 -0.25447851 1.4521087 0.71333331
1.7656569 -0.25254285 1.4064516 1.5
2.244632 -0.24973804 1.3432785 2
2.5677323 -0.25176582 1.4195733 0.83333331
3.0848918 -0.27107617 1.374711 2.9999998
3.4081328 -0.26875618 1.380041 2.1875
3.7049279 -0.26415434 1.5963081 2
4.0527692 -0.27880603 1.3608363 0.75
4.7929192 -0.11830308 1.2623677 6.1923075
4.8410697 -0.18261857 1.3623751 4.4809761
-0.935031 0.079775386 1.3989954 8.3282709
4.7948151 0.24553207 1.5808985 11.16925
4.8328362 0.20288815 1.3875449 9.7049465
4.7903919 0.40952489 1.4900295 14
4.9119406 0.59876287 1.3691618 11.417974
-13.379138 0.82853979 1.5204846 8.1086664
5.0663247 0.85383278 1.3725586 12.594584
5.2244749 0.87134558 1.4820416 13.0885
-21.861952 1.2249433 1.3713442 8.1190004
-21.634983 2.1057515 1.3461947 9.1190004
-21.59868 2.1079688 1.2722292 9.0865002
-17.651958 2.3728857 1.4245406 10.0905
-17.268793 2.3536911 1.2548248 10.0865
-14.654516 2.2028153 1.2139947 10.095
-5.4114728 2.3603911 1.3532517 14.12
8.641984 2.2377179 1.3217174 14.110166
10.703922 2.3927221 1.4314249 13.59875
11.692509 2.188838 1.3169441 12.11225
-18.035204 2.7620034 1.4172435 11.039
-13.519384 2.6009541 1.4089203 11.5675
-11.29159 2.5378351 1.2997103 13.0385
-9.5659323 2.5340357 1.4125431 12.59075
-8.895256 2.7937601 1.57985 13.12
-7.7187457 2.4860511 1.5504948 14.08725
11.346466 2.41871 1.4981287 13.0975
11.661409 2.4519653 1.3620105 14.07975
-16.143618 2.8170769 1.2390736 11.0865
-13.445295 2.9968667 1.3808203 12.802313
-11.639148 3.1338756 1.3592017 13.09025
-9.218008 2.8623273 1.3560847 13.1195
-9.1986446 3.0185304 1.4227693 14.09025
12.956556 2.9099636 1.3551311 13.3545
-12.289124 3.2045405 1.5515393 14.039
-0.92952085 -0.52904153 1.8021784 4
4.7947273 -0.57503331 1.9059255 4
4.8234749 -0.51101631 1.8323736 3.3809526
-0.92881638 -0.2148903 1.7601705 4.0925927
-0.5962919 -0.26531655 1.8368077 1.0833333
-0.19176312 -0.25973031 1.774456 1.3333334
0.33264309 -0.27065417 1.7086993 2.4166667
0.69980258 -0.24751806 1.8292264 1.2222222
0.93162525 -0.25787535 1.7730598 1.5166667
1.3478763 -0.24367939 1.8984826 1
1.7780873 -0.24823216 1.8656129 0.5
2.205065 -0.25044081 1.8034621 1.25
2.57815 -0.26698139 1.7667433 1.1111112
3.0320582 -0.2643584 1.8067596 3.375
3.7061343 -0.2672202 1.9169328 1.3333333
4.7737436 -0.16772987 1.8992043 4.7222223
4.824718 -0.16708511 1.7806211 5.0930557
-0.91933721 0.085459597 1.8052746 8.1779165
4.7775307 0.20886795 1.8609868 9.2666674
4.8144174 0.21642768 1.801109 10.614779
5.2610874 0.26870623 1.9867253 11.03
6.1931982 0.21749076 1.8263512 8.6628428
4.776176 0.49573556 1.9324524 9.5
4.8892059 0.65611964 1.8050073 11.845454
6.1904383 0.54316592 1.8849225 11.976104
-13.458754 0.88640136 1.6564974 8.0955
5.0464869 0.83828694 1.7145385 12.096937
8.5419865 0.93477207 1.7864447 12.0255
-21.663631 2.1098483 1.8269453 9.1064997
-17.687054 2.3769031 1.8046988 10.091
-14.727448 2.2748275 1.8329417 11.039801
-10.974106 2.2220509 1.7324473 11.12
-5.4778934 2.3830211 1.778113 14.11225
11.744442 2.2190521 1.6105485 12.11
-13.635547 2.5864239 1.8175672 12.03975
-13.574096 2.5701618 1.7927729 12.0405
-12.099813 2.7057216 1.8361267 12.406499
-10.182265 2.6634638 1.8137689 14.04125
-9.695158 2.5125556 1.8093144 12.504499
-9.5417957 2.5620472 1.7227685 13.0875
-8.8770313 2.7976942 1.9292686 13.0955
10.135326 2.6421747 1.8987505 14.109
10.432444 2.5658307 1.6401823 14.09725
12.304146 2.6082563 1.9175923 14.07825
14.948364 2.5583556 1.7613168 12.084249
-13.075449 2.9223125 1.6874461 13.04
12.927617 2.9132433 1.8169869 13.435166
15.74398 3.037915 1.7260103 13.07825
6.2219872 -0.83230305 2.2865257 2.5
4.8011661 -0.46027046 2.0313606 4
-0.99678975 -0.13292764 2.2416105 5.6942148
-0.64572096 -0.26765841 2.1743798 2.75
-0.27701896 -0.27073443 2.2898586 1
0.19190241 -0.2634196 2.1285696 2.125
0.61492372 -0.27243063 2.16804 1
0.90344083 -0.2576502 2.1994572 2.25
1.4250818 -0.23584577 2.194129 0.5
1.7808249 -0.2500737 2.2390194 1.4791667
2.1505799 -0.26357982 2.2937636 1.375
2.565475 -0.26866701 2.1848762 2.6458335
2.8192081 -0.25672597 2.2975905 1
3.7907741 -0.26865527 2.3269932 1.8333334
4.3053188 -0.24672757 2.3209767 0
4.7274289 -0.19375353 2.01387 4.1111112
4.8920941 -0.18698353 2.1698744 5.0185184
6.2099953 -0.11949223 2.209106 6.25
-1.0001857 0.086025871 2.2117028 8.0372496
4.7902908 0.24797691 2.0160341 8.5
4.9278064 0.23609459 2.013006 10.602928
5.232091 0.17736478 2.0369978 8.3327503
6.1907077 0.27485821 2.1697412 8.4946203
-13.470396 0.79487377 2.1233492 8.0915003
-9.7543554 0.64365965 2.2089944 8.0885
4.7797427 0.67838758 2.016469 10.7015
4.8105397 0.58727062 2.0127554 11.75
6.1813602 0.54774648 2.0857055 10.628612
7.6184793 0.65201187 2.2088478 9.887166
9.1393423 0.68548405 2.3939562 9.0830002
-13.471123 0.82729465 2.2633803 8.1204996
4.7637839 0.80030602 2.0251386 12
9.0574236 0.82747388 2.2958014 10.0775
-21.677103 2.1143508 2.2934966 9.0918331
-14.775908 2.2720442 2.1604025 11.0405
-12.805239 2.2950215 2.0202107 11.087749
-10.861244 2.2158887 2.1365814 11.112499
-10.797408 2.2231488 2.125875 11.096
-5.4711447 2.3624349 2.1866646 14.09575
17.480417 2.3821933 2.276443 11.07725
-17.628813 2.4002063 2.1098342 10.0875
-13.60882 2.5729356 2.0111403 12.0405
-13.544618 2.5823705 2.3982711 12.0415
-9.6553078 2.6253927 2.098439 13.566999
-9.4985523 2.5415304 2.3025703 13.565875
-8.5113039 2.7143037 2.1777024 13.096
-8.3054934 2.7110682 2.1318905 13.444667
-5.5785213 2.4309139 2.3810301 14.1225
10.119945 2.6420872 2.1217642 14.108666
10.403601 2.560334 2.1615412 14.096
11.981932 2.5635664 2.1797879 13.096
-13.535343 3.0535707 2.2980738 13.040751
-11.606476 3.1290278 2.3793931 13.092
-9.2771158 2.9101043 2.3991055 14.089
12.891541 2.9062977 2.173171 13.352938
15.461811 3.1362281 2.0137026 13.08375
15.689342 2.9082799 2.2485435 12.1035
-0.97135806 -0.5245629 2.5229151 4
-1.7019703 -0.24848154 2.7893529 6
-1.0078481 -0.1465459 2.5477457 4.9375
-0.6384474 -0.24685295 2.6659169 3.25
-0.24960321 -0.22523153 2.5584116 0
0.31091797 -0.26121646 2.5890136 5
1.4219424 -0.25544679 2.6590393 1
1.8120335 -0.24672763 2.5770814 1.1666666
2.3374734 -0.26532081 2.5924747 4.1666665
2.5994492 -0.26400179 2.5098047 1.375
2.9018965 -0.26070762 2.5373862 3.1666667
3.390126 -0.24252462 2.7961311 0
3.8199601 -0.23679277 2.616616 5
4.5823426 -0.25913629 2.6356728 2.6666667
4.8634877 -0.2669923 2.5312903 6
5.8065963 -0.23666979 2.7270265 5.5
7.0420723 -0.24216649 2.7909172 6
7.8816385 -0.23588756 2.7787218 6
-1.0399755 0.10699125 2.5214045 8.0177145
6.1833968 0.24810715 2.4593642 8.0889168
-10.124542 0.71564847 2.4407806 8.0965004
-9.8723936 0.70323884 2.7002707 8.0970001
17.976273 1.9667859 2.4527655 10.08
-21.530678 2.1055005 2.7349138 9.0880003
-10.911972 2.2238843 2.6580267 11.1215
-6.3572817 2.3058236 2.7093954 14.0935
-5.5291872 2.377115 2.7599514 14.09725
12.23306 2.3111882 2.7707775 12.1095
17.446569 2.3764746 2.703208 11.0765
17.935974 2.1174781 2.7343304 10.04775
-20.147287 2.7139659 2.6315558 10.088
-13.621543 2.6081519 2.6193092 12.040751
-13.555475 2.5846238 2.6410117 12.04175
-9.6635475 2.5326834 2.6321933 12.839062
-5.5946803 2.442883 2.5637269 14.123
10.155305 2.6349328 2.6999636 14.104188
11.719969 2.5145633 2.7722182 13.094749
14.349895 2.4472098 2.59359 12.08275
17.425293 2.5456188 2.6652999 11.041375
-13.539882 3.0349731 2.5164125 12.724667
-9.3218193 2.9403529 2.5969663 13.35825
12.831851 2.9167509 2.6476216 13.43275
15.487803 3.1455989 2.7573504 13.0825
15.666938 2.9763622 2.6211348 12.432083
17.564472 2.9247637 2.5735145 12.07675
17.463112 -2.9479818 3.194365 2
-9.4931746 -0.19562535 2.9596624 7
-2.6473091 -0.24249426 3.0998831 6
-1.6580904 -0.24666458 3.0713444 6
-1.2128152 -0.25522375 2.9709027 5
-0.95283425 -0.27388903 3.1275077 5
-0.5416131 -0.24468565 2.9896214 5
-0.21455586 -0.25361124 2.8834736 1.3333334
0.34182906 -0.26039749 3.0567927 5
0.57642531 -0.27033806 3.197886 5
1.0224544 -0.25114614 3.1326919 3.25
1.584615 -0.21780229 3.1133089 2.1428571
2.2085521 -0.22078514 3.04195 2.0833333
2.7344513 -0.24947028 3.0354638 0.875
3.1453133 -0.24202874 3.1791089 0
3.3780615 -0.25792161 3.1385219 0.5
3.7604754 -0.25785026 2.9687119 2.7222223
4.1985035 -0.25973207 2.9723225 3
4.6634293 -0.26171875 3.0478356 5.4000001
4.9234838 -0.26274371 2.8371572 6
5.5798721 -0.24205762 3.001018 5
7.8384895 -0.23478553 2.9464233 6
14.085954 -0.12760007 3.1790333 7
-10.074982 0.66986781 2.9864385 8.1222496
-9.847271 0.63915145 2.887682 8.0915003
17.925884 1.4754237 3.0595624 9.0190001
-19.422148 1.9284136 3.1957116 9.1210003
17.936796 1.9633056 2.9460344 10.07925
-16.469963 2.2413287 2.9973648 10.0925
-16.280287 2.2435544 3.187623 10.089
-6.1611009 2.2533591 3.1181374 13.447499
11.927006 2.3133726 3.0413649 12.350375
12.113733 2.3076506 2.9766483 12.10825
17.921474 2.1179154 2.9575675 10
-20.25584 2.6785407 2.8063269 10.092
-16.268135 2.528399 3.0888345 11.04125
-13.920088 2.4991751 2.8213949 11.0925
-13.580034 2.6198883 2.9998512 11.56975
-9.6501713 2.5786157 3.0479379 13.273
-5.6451306 2.4838154 3.1026049 14.12425
10.16352 2.6315281 2.9064436 14.102666
11.837299 2.5690603 2.8779926 13.592501
12.129632 2.7504537 2.9902973 13.1075
17.548773 2.6446331 2.9615202 11
-16.277189 2.8533087 3.1718762 11.089
-13.570746 3.0454283 2.9897368 12.724334
-11.569846 3.1335025 3.1336555 13.09325
-9.3459616 2.9253826 3.0093689 13.358188
12.799522 2.9048927 2.8372905 13.107
15.620902 2.9441376 3.0718262 12.103583
17.918524 -2.2821999 3.3721635 3
17.910004 -1.8243765 3.5426521 4
1.0140204 -0.51425844 3.2457132 3
1.4596543 -0.49528199 3.2768784 3.1875
1.8018566 -0.53962904 3.2831886 2.9722223
2.1087484 -0.50311929 3.2952337 3.375
2.5521939 -0.47266591 3.2938583 4
-2.5598605 -0.24080589 3.3185549 6
-2.299432 -0.22977215 3.4438705 5
-1.5993912 -0.24476525 3.3074725 6
-0.89011562 -0.26937211 3.2997241 5
-0.69332552 -0.26472291 3.3732276 5
-0.067917407 -0.25591066 3.340764 1.6666666
0.49265319 -0.25552666 3.3512478 1
0.9832257 -0.14824674 3.2386761 4.5952897
1.4333575 -0.14833339 3.2578228 4.848762
1.7128334 -0.14094648 3.2671604 4.7118096
2.1197691 -0.15932482 3.2712119 4.1801252
2.5506909 -0.16968191 3.3183439 4.4626126
2.8952522 -0.25805759 3.3983405 0.25
3.4284339 -0.25363591 3.461935 3
3.6901033 -0.25898629 3.3401148 3
4.3523154 -0.2480886 3.5126839 5.5
4.6611338 -0.25800803 3.4011509 5.6666665
5.5045948 -0.24375847 3.3644109 5
5.8800015 -0.22665623 3.2046313 6
6.1082649 -0.23433281 3.5564518 5
6.9789734 -0.24070039 3.3110693 6
7.7475729 -0.23514375 3.4742727 6
-9.7128782 0.25579387 3.5490766 8.0985003
0.98606771 0.21903831 3.2376533 9.7636642
1.4003 0.22384109 3.2503848 9.6656342
1.7579523 0.24072784 3.2711351 10.125289
2.1966405 0.2357789 3.2714281 10.009721
2.5525248 0.21563502 3.3353298 10.225391
17.879841 0.35358247 3.5384786 8
-9.8913517 0.70636773 3.2910101 8.0979996
-6.1448994 0.48182485 3.5275481 8.1143332
1.5940862 0.59839326 3.4374673 11.390334
1.7002809 0.54104424 3.2991552 12.583877
2.129302 0.56375492 3.3145413 12.19018
2.5296524 0.60121542 3.3069191 11.684869
1.7060361 0.87500161 3.2986062 13.760834
2.2459724 0.91633403 3.2967036 13.755768
2.491858 0.88242275 3.3050089 13.181666
17.891342 0.88330907 3.4346423 8
17.904444 1.4510241 3.3660128 9.0136671
-19.904911 1.9278965 3.4160872 9.0907497
-18.944098 1.9615484 3.3243546 9.0974998
17.896318 1.9631288 3.4102602 10
-16.096491 2.3751643 3.2158923 10.0975
-15.05866 2.1981089 3.4078856 10.112416
-6.1459484 2.2586439 3.3000536 13.448001
11.571136 2.2106044 3.4234018 12.108
11.752461 2.3233232 3.2845747 13.081
17.388609 2.3705809 3.364419 11.0755
17.895767 2.120338 3.2991486 10
-16.242073 2.5287588 3.2084668 11.042
-15.697688 2.4304011 3.2846477 11.042
-15.022589 2.6604455 3.3546555 11.0895
-13.616962 2.6406488 3.370944 11.346001
-13.587993 2.631887 3.4356134 12.04325
-9.6894979 2.5585008 3.3665872 12.8865
-9.5337362 2.7029898 3.5886323 13.0945
-5.6244936 2.4109354 3.3451209 14.09875
9.5434608 2.596205 3.3086646 14.10425
10.101501 2.6485429 3.3299127 14.103001
11.568047 2.5006056 3.4567685 13.09325
11.761882 2.4728527 3.4210713 14.0745
12.222319 2.7737498 3.4130249 13.1075
14.259403 2.4412303 3.3944573 12.08125
17.412945 2.5557795 3.4956388 11.040751
-13.609637 3.0604079 3.4689548 12.724999
-9.3746681 2.9332323 3.3730984 13.114834
12.636492 2.9129667 3.4353008 13.593374
17.512196 2.9190385 3.3833892 12.0755
17.865805 -2.5817399 3.8001723 3
-0.50757247 -0.49962613 3.8486385 3.2142856
-0.12151423 -0.54091299 3.8998694 2.75
0.19442701 -0.65933383 3.9427752 2.0999999
0.49766579 -0.74920279 3.9984386 2
0.85384727 -0.41649014 3.7424743 4
-9.3732605 -0.19281968 3.7756042 7
-3.2332394 -0.24337541 3.8890343 6
-2.3585293 -0.23862067 3.8019109 6
-0.57473028 -0.16769779 3.8216877 5.6078434
-0.16149364 -0.12007225 3.8608017 6.143939
0.14667235 -0.13355152 3.8937232 5.7216558
0.5143925 -0.14694723 3.942734 5.9829059
0.92341757 -0.20897116 3.730952 4.6571426
1.3926353 -0.31308165 3.7739983 4
1.9551613 -0.24673188 3.8159871 2
2.0988114 -0.24023569 3.7339408 2.8333333
2.514297 -0.19175018 3.8245325 3.5
3.0926595 -0.27246815 3.7652249 1.75
3.4911151 -0.23796558 3.7821655 5
4.1964536 -0.25811252 3.7898877 5.6666665
4.490943 -0.26887441 3.9586692 6
5.87114 -0.23135333 3.7207127 5.3333335
6.9218826 -0.2402766 3.6584363 6
7.6039143 -0.2339076 3.8817008 6
13.115877 -0.15215185 3.8146799 7
17.741716 -0.20349555 3.7916 7
-0.58007002 0.25189266 3.8206236 8.8920441
-0.21562301 0.2630778 3.8612781 8.9972534
0.17577502 0.2502059 3.9131007 9.2441082
0.56062049 0.23827274 3.9574509 8.992939
0.88497728 0.18428527 3.7746506 8.8465281
2.5903134 0.18522951 3.8649495 9.5625
17.852392 0.35283694 3.7952595 8
-9.3420982 0.64188862 3.8560662 8.1239996
-6.463551 0.78249311 3.9148369 9.0939999
-6.1013489 0.4878253 3.7955341 8.0974998
-5.8822746 0.67647702 3.9802966 8.7985001
-0.57021046 0.45203787 3.8223975 10.989465
-0.18036871 0.4570666 3.8691897 11.353426
0.22926912 0.46401474 3.9157243 11.841409
0.53660101 0.45177183 3.9512515 11.507375
1.5939728 0.62007731 3.7786262 11.557667
1.741846 0.53792983 3.7459078 11.76339
2.195328 0.47244409 3.7745976 10.0885
2.5519183 0.45071939 3.7882674 12.736084
-9.3542118 0.88874817 3.9982822 9.026
1.5872929 0.91382456 3.7834444 13.647542
17.868155 0.89737159 3.811502 8
-13.634907 1.3959699 3.9467781 9
17.870178 1.4878454 3.799917 9
-19.874062 1.8902695 3.6530454 9.0930004
-19.414125 1.9319737 3.7787092 9.1215
-18.923578 1.9621905 3.7456331 9.0979996
-13.650752 1.9337744 3.9317031 10.04525
17.87018 1.9521416 3.8249671 10
-14.96126 2.2957585 3.7298806 10.8528
-14.729554 2.3270555 3.8846252 11.0435
-14.06629 2.2037241 3.9087036 11.0435
-13.676257 2.1604121 3.9944849 11
-6.098413 2.2835932 3.7077022 14.096251
11.527075 2.2247398 3.6278181 12.10675
11.639547 2.2839351 3.6619627 12.105
17.364046 2.3718576 3.8356233 11.07475
17.854219 2.1247005 3.7955856 10
-14.730986 2.6314476 3.6309187 11.0935
-13.655924 2.5051823 3.8303714 11.306937
-13.596807 2.6316288 3.6243014 12.0425
-9.7292137 2.5850694 3.7968519 13.071751
-5.7109585 2.4522929 3.9453502 14.10025
9.059679 2.5141995 3.6904292 14.103
9.3971071 2.5734236 3.8715441 14.104
9.6247063 2.6192911 3.7561877 14.1045
10.599783 2.654685 3.6204801 14.0925
11.842368 2.7389443 3.7998085 13.430167
12.055024 2.7389266 3.7751961 13.1075
12.872799 2.7728839 3.7289622 14.074
13.430656 2.715486 3.9717989 13.08
17.37867 2.5569918 3.8182402 11.040501
-13.64606 3.0598056 3.8834305 12.409167
-13.579875 3.1433513 3.9293122 13.044
-9.4049625 2.9636586 3.7630477 13.595375
15.576072 2.947824 3.8224516 12.584
17.468866 2.9195673 3.9987793 12.0745
17.406099 -2.9498565 4.1848884 2
-5.7943277 -1.3024383 4.098444 3
8.046649 -1.3431394 4.3242459 3
8.0852375 -0.86842167 4.2718754 3
8.0924511 -0.66736943 4.337656 4
-5.807694 -0.13437916 4.188673 7
-4.0309243 -0.20562837 4.1105671 6
-3.9477763 -0.20315245 4.3012438 6
-2.9575887 -0.24038334 4.1932182 6
-1.7531563 -0.21901 4.3823085 5.6666665
-0.61781502 -0.16822511 4.1109514 5
0.15848586 -0.310076 4.280694 3
1.0014808 -0.21862246 4.00002 5
1.4634824 -0.12530261 4.0675497 6
2.3776474 -0.23594213 4.1490932 6
2.6444862 -0.12212095 4.2077093 5.4305553
3.0130816 -0.17625274 4.3887658 5.375
4.2183337 -0.23499948 4.1798997 5
4.4068508 -0.30670592 4.3916898 6
5.446784 -0.23674223 4.0547404 5.5
6.7486801 -0.23648795 4.1024098 6
8.0317383 -0.16569799 4.3487744 6.5555553
9.0650778 -0.16330309 4.374177 7
12.988008 -0.134313 4.1835856 7
17.781178 -0.22726253 4.0751801 7
-5.7757072 0.1628256 4.1636648 8
1.49774 0.28470176 4.0984035 9.4359999
2.6041183 0.23938088 4.1469254 10.234594
3.1019287 0.19957253 4.3607736 9.3527088
7.9931908 0.28145051 4.3796749 8
8.0805645 0.2907103 4.2977905 8.0242004
8.4812384 0.34582078 4.2932754 8.0233335
8.9513302 0.3705067 4.3589168 8.0214996
17.839912 0.36758849 4.0717564 8
-7.4954648 0.74095315 4.1689529 9.0275002
-6.9965167 0.70113093 4.189518 9.0279999
-6.3928304 0.78044146 4.061923 9.0944996
-5.7866855 0.56675631 4.2781777 8.4985504
1.5267606 0.60288155 4.1386504 11.3325
2.5783598 0.46727502 4.1565437 13.580099
3.8897958 0.60436428 4.1914101 11.082001
7.9762864 0.61106294 4.3359952 8.833333
8.1196976 0.6169579 4.2886996 9.1763687
8.5412893 0.55593503 4.3270497 8.6559
8.8927288 0.63239223 4.3316779 9.1862497
-10.150672 1.1014748 4.2184725 9.0955
-9.4339132 1.1004741 4.18436 9.1138334
-8.9672041 1.1859877 4.3442287 10.024
-8.604887 1.0260212 4.220067 9.3312502
-7.7381449 1.0407418 4.371357 10.02475
-7.5654049 1.0173573 4.2784157 10.01375
-6.5464978 0.89211535 4.0858345 10.042167
-6.2048483 0.85302836 4.2545981 10.0495
-5.8572283 0.82501757 4.1230745 10.04
1.5166451 0.97350883 4.2095838 13.636545
1.7274503 1.1516379 4.1448827 14.084
7.9808731 0.99814612 4.3408351 10.666667
8.1421576 1.0406395 4.2975225 11.07225
8.4519711 1.0224251 4.3028278 9.8525
8.8446817 0.98376369 4.315444 10.700833
17.827478 0.8744626 4.1079593 8
-13.620817 1.4193459 4.1191301 9
-9.3463249 1.4177343 4.0928426 10.0925
-8.9389963 1.4715325 4.2553744 10.540563
-8.600091 1.4423862 4.3221536 10.562083
-8.2174015 1.3661927 4.3701601 10.369708
-7.7975173 1.4093335 4.3774538 10.4577
7.9827061 1.3497642 4.366035 13
8.1203556 1.341158 4.2945738 12.433887
8.4360828 1.3587147 4.2918711 12.542707
8.875164 1.4842867 4.326436 13.5215
17.827702 1.4827174 4.1269822 9
18.184351 1.4835738 4.3724413 9
-13.61831 1.9303153 4.1198874 10
-13.592291 1.9261886 4.2445593 10
-9.4286642 1.815491 4.1062756 11.0925
-8.9431629 1.8488836 4.2832656 11.71895
-8.5826311 1.8318741 4.3246703 11.6745
-8.2493362 1.7577358 4.3601484 11.453042
-7.7783065 1.8279492 4.3778515 11.730334
8.3475285 1.6797967 4.2862358 12.104
8.44242 1.6476854 4.2949042 13.57325
17.858839 1.9289111 4.015892 10.0745
-13.634867 2.148514 4.187367 10.8
-13.59128 2.1479745 4.3434505 11
-9.3720741 2.254853 4.2895026 13.046833
-9.004591 2.1650662 4.2726192 12.181334
-8.5351658 2.1569123 4.3540578 12.668125
-8.1578169 2.2492101 4.3741069 13.016167
-7.8802862 2.2448347 4.3830895 12.75
-5.9773598 2.2893853 4.2521186 14.09775
11.418812 2.2204721 4.2668867 12.10625
15.61628 2.2183723 4.2566104 11.08
17.830854 2.0440671 4.190659 10
-13.626527 2.5908179 4.1336708 11.5
-13.546019 2.610496 4.3048167 11.75
-9.4518518 2.5913689 4.2581244 13.277901
-8.9918079 2.4967098 4.2994242 13.237401
-8.5270357 2.4981332 4.3629084 13.5725
-8.291297 2.7546463 4.3246641 14
-7.8221335 2.6412635 4.3800735 14
9.0926657 2.5317168 4.2216101 14.103
9.9873438 2.6905465 4.0756655 14.10575
10.215095 2.5822124 4.0912843 14.091249
12.067125 2.6458173 4.2607818 13.09175
12.827076 2.7823892 4.2994928 14.07275
14.169757 2.444695 4.1880288 12.07975
17.45265 2.6621356 4.3734837 11.093
-13.635165 3.0784595 4.11344 12.5
-13.461582 3.0594749 4.2554216 12.5
-12.811817 3.0430994 4.3582683 13.0255
-12.514135 2.8273225 4.3283033 12.09325
-12.340777 2.869045 4.3820605 13
-11.819006 3.1511302 4.2835493 13.04575
-11.468241 3.1684806 4.1627378 14.035625
-8.9348431 2.889333 4.2851849 13.731
-8.7981453 2.883183 4.3362732 14
12.73173 2.981478 4.3036623 13.59175
15.132639 2.8097975 4.0554895 12.093
17.784451 -2.4647825 4.5539179 3
17.824059 -2.2901232 4.6813869 3
-5.7647557 -1.3191928 4.5733733 3
7.9881473 -1.3903444 4.7026501 2.75
8.0101566 -1.2492291 4.6791639 2
-5.6622229 -0.98548621 4.7208591 3
-3.43291 -0.90208715 4.6460161 3
-3.0653224 -0.89443856 4.6200037 3
-2.7152183 -0.89120847 4.7302074 3
-1.6434501 -0.91433841 4.6079512 2
-1.1266301 -0.90313077 4.703639 2
4.6319227 -0.93864655 4.6706228 3
5.4564342 -0.85076982 4.7915907 4
7.9950123 -1.0867946 4.7409225 4
8.0233335 -0.87331355 4.6100731 3.5
11.104408 -1.0057321 4.6697779 4
-5.6272974 -0.65393156 4.734952 4.4000001
-3.3488584 -0.62054026 4.5979614 3.25
-3.0524676 -0.61731201 4.5846877 4.375
-2.4744837 -0.61888844 4.7359543 3.6666667
-2.2099147 -0.59034389 4.7834797 4
-1.3124104 -0.70183885 4.6560593 2.5
-0.46468952 -0.49543336 4.4386325 4
-0.24592774 -0.49625179 4.4653459 4
0.098715931 -0.51008821 4.58533 4
1.0445613 -0.71405184 4.7448759 2
4.623374 -0.61081588 4.7214761 3.5
5.5253615 -0.50791931 4.7394896 3.4166665
8.0382833 -0.67115629 4.4773121 3.5714285
-5.7204113 -0.095289662 4.5616198 7
-5.5922098 -0.12872948 4.7517977 7
-3.4802167 -0.18550849 4.5887079 6
-2.9799588 -0.13229337 4.5561323 6.6999998
-2.6450808 -0.10047136 4.7132945 6.6309524
-2.1602335 -0.12995911 4.7755237 6.5
-1.6058757 -0.067526385 4.5565705 7
-1.4045933 -0.091065131 4.5941458 6.7128201
-1.1045096 -0.14755476 4.6083927 6.4333329
-0.60142702 -0.14773503 4.6263027 6
-0.19044675 -0.17199717 4.6179848 6
0.0036800504 -0.0896933 4.5115261 6
0.62593728 -0.16136827 4.6312485 6
0.83789659 -0.20471492 4.6115313 5.6999998
2.4967396 -0.20684624 4.5193181 4.5
3.1802313 -0.082959689 4.4222536 6.166667
3.3133173 -0.17146619 4.4713535 5
3.785327 -0.16580233 4.6506977 5.7833333
4.6082559 -0.073864251 4.6378741 7
5.4801073 -0.13918029 4.690166 6.2619047
5.7871685 -0.12603134 4.7856445 7
7.0382075 -0.17918688 4.6226482 6.3333335
7.4439936 -0.12101262 4.7438507 6.5714288
7.9750881 -0.12263962 4.5558243 6.7222223
8.0165596 -0.19842948 4.4257102 6.1428571
8.7490845 -0.29494721 4.636652 6
10.125672 -0.19083586 4.6415486 7
11.538133 -0.10324167 4.566514 7
-5.7150569 0.26663232 4.5781527 8
-3.2662702 0.33819127 4.5666475 8.0251255
-3.035615 0.23570606 4.6030374 8.1178751
-2.643477 0.28031972 4.6978078 8.1280832
-2.2554677 0.28221413 4.769547 8.248313
-1.7177907 0.2956481 4.6360021 8.5189285
-1.4563214 0.23109327 4.6091871 8.4228487
-1.1222779 0.26886916 4.6736188 8.333333
1.0341369 0.20314358 4.6952701 8.0819998
3.3289237 0.30244955 4.5385523 10.3825
3.7994189 0.2719278 4.6442242 9.0301723
4.6202893 0.21381778 4.6392856 8.2597504
5.4953084 0.31544498 4.7236338 8.4764166
5.7675166 0.32836244 4.7432175 8.7110004
6.1204329 0.24301419 4.7694616 8.0635004
7.1561265 0.22772166 4.6975994 8.0669003
7.4059124 0.18478791 4.7445378 8.0221663
7.9861698 0.31221491 4.6235504 8.0187502
8.0390053 0.36013865 4.4312344 8
9.2683535 0.16738488 4.4172902 8.1044998
-5.7296872 0.61970496 4.5528035 8.6455908
-3.3563337 0.6057086 4.6127038 9.7360439
-2.9869673 0.603809 4.6451807 9.8421021
-2.6502256 0.60808575 4.722362 9.9126987
-2.2184298 0.60113007 4.7698565 10.159695
-1.7380091 0.58429015 4.7085323 10.258075
-1.4172611 0.52146077 4.6749372 10.218258
-1.1509032 0.51787376 4.6851339 10
2.6988964 0.4702076 4.4924111 12.846557
3.0731962 0.47490335 4.5333581 12.849221
3.2408934 0.54752505 4.5706997 13.5
3.8031156 0.48739207 4.6650472 10.833333
4.2007456 0.56398576 4.7008953 10.059999
4.5841017 0.55658114 4.679317 10.411667
5.1248937 0.54996395 4.6934028 10.075916
5.4144549 0.53775191 4.7258873 10.194445
6.2658138 0.73536295 4.7956214 11.53325
7.1539817 0.40631959 4.7186708 8.1014996
7.4165211 0.46375147 4.6847286 9
7.978723 0.58915085 4.5942426 8.7313337
8.0411797 0.63813615 4.5686331 9.25
9.4881401 0.57304794 4.4865923 8.75
9.9127684 0.5532074 4.5191216 8.5
10.488487 0.46812126 4.6536775 8.0445004
11.101895 0.50040674 4.6543341 8.0710001
-7.7783604 1.0655708 4.4302592 10
-7.4938211 1.0715867 4.4464293 10
-6.9244676 1.0616916 4.4513335 10.01625
-6.5758829 1.0549889 4.4887118 10.174376
-6.1902161 1.0574292 4.5102129 10.609392
-5.7776961 0.97707075 4.5997701 10.263909
-3.3467195 1.0178467 4.6149273 12.060442
-3.0117028 0.99728858 4.6425586 11.932566
-2.6302567 1.0280832 4.7341032 12.51414
-2.2113364 0.99046969 4.7696519 12.374344
-1.7976298 0.98145455 4.7927103 12.609708
-1.5889419 0.93278241 4.7947817 12
1.445835 0.90667248 4.6306047 12.58275
4.4119396 0.96073329 4.7297421 12.5
5.4261217 0.89279276 4.7792921 11
7.9878407 1.0375923 4.5823994 10.788727
8.0147934 0.92962915 4.5172739 10.98
9.3933144 0.98195523 4.4491749 10.666667
9.7857666 1.0013525 4.4734464 10.5
18.236479 0.89813453 4.4225168 8
20.453915 1.013886 4.7007084 8.0740004
-12.24788 1.4322821 4.5330386 9.4246664
-7.7464218 1.3272153 4.4190779 10.8391
-7.3822312 1.4302069 4.4453201 11.354542
-6.899971 1.3827055 4.4807467 11.247357
-6.5732474 1.3981539 4.4913235 11.470572
-6.1792359 1.445191 4.5259171 11.956084
-5.7516694 1.4265128 4.6159434 11.914035
-3.3181551 1.3351017 4.6225343 13.436119
-3.0544453 1.3536395 4.6540103 13.557901
-2.6155946 1.3631796 4.7345219 13.658632
-2.243118 1.3285345 4.7721481 13.838375
-1.8507385 1.3029914 4.7609906 13.828813
4.5399022 1.4519215 4.7271099 13.427834
5.0058866 1.5253096 4.7509565 13.094
5.2701793 1.5011671 4.7350516 13.096
7.9725599 1.3505626 4.5814037 12.287273
9.459486 1.3699087 4.4852777 12.347833
9.7858992 1.3543465 4.4852209 12
-13.001082 1.8626536 4.4508739 10.095
-12.137255 1.7657135 4.5559931 10.04775
-11.851866 1.9304755 4.5839539 11.0455
-11.453606 1.8684531 4.6603775 11.046
-8.0391684 1.6644659 4.4201579 11
-7.761857 1.8108181 4.4258718 12.402937
-7.396472 1.8639898 4.4470096 12.721468
-6.8898072 1.7602695 4.4770441 12.4361
-6.5703621 1.7915227 4.5013146 12.930583
-6.0963397 1.7872893 4.5242977 12.84325
-5.7440004 1.7921156 4.6390867 13.083833
-3.3531868 1.7601626 4.5904727 13.6035
-3.0833032 1.6388204 4.6454291 14.051001
8.2748966 1.6451974 4.580595 13.329
17.805185 1.9314909 4.6921992 10.0735
20.457912 1.650512 4.7182627 9.0740004
-13.395632 2.1530473 4.4531159 11.028625
-13.042588 2.3987803 4.443367 11.095
-12.714851 2.0254447 4.476284 11
-12.160085 2.1264052 4.5174723 11.013
-11.822557 2.2815437 4.5590014 11.57025
-11.439995 2.2947521 4.593564 12.046249
-10.922156 2.1850755 4.6263461 12.0465
-8.1464558 2.1762309 4.4112692 13.54825
-7.7885814 2.1838474 4.4294109 13.78125
-7.3725328 2.2017868 4.4485292 13.644699
-6.9630508 2.1407166 4.4796653 13.739349
-6.5704775 2.1434178 4.5045099 13.787437
-6.0584373 2.2153318 4.4975524 13.698667
-5.7487245 2.1883843 4.6153698 13.516917
-5.3354959 2.3863254 4.5571508 14.102
15.613405 2.2250917 4.5307684 11.0795
17.306522 2.3764122 4.6331525 11.0735
17.805767 2.0027747 4.4939318 10.04
-13.310002 2.6379888 4.4384551 12.038167
-12.849246 2.5163872 4.4680147 12
-12.624555 2.4771252 4.4839873 12
-12.339375 2.494437 4.5442171 12.026
-11.842226 2.6825776 4.4662266 12.6364
-11.338042 2.6551692 4.4642062 12.728833
-10.977428 2.6561861 4.6338482 13.03675
-8.2901096 2.4266534 4.4113741 14.049
-7.3587341 2.529079 4.4196186 14.04725
-5.7282104 2.4834549 4.5118384 14.033834
9.5562696 2.651618 4.5737047 14.1035
10.133741 2.5584822 4.6978869 13.760501
12.369072 2.6879151 4.7718391 14.0715
-12.297395 2.9053624 4.4129224 13.0455
-11.877941 2.844229 4.44279 13.026
-11.34797 3.0958319 4.4108191 14.04575
-10.783817 3.030051 4.5135446 14.0265
9.9169207 2.8333685 4.7880611 14.1015
12.691213 2.9224288 4.6421895 13.10625
15.449638 3.0266526 4.6436753 12.748166
17.415665 2.9241562 4.6609259 12.0735
17.238216 -2.9428921 5.1825624 2
17.787865 -2.5832655 4.888792 3
20.443195 -2.1326151 5.0074954 4
-5.4326134 -0.95587587 4.9706187 3.6666667
-2.2344692 -0.83234453 4.8042083 3
-1.8883461 -0.92040664 4.822041 2
0.94923353 -0.96462971 5.0966983 2
5.1167178 -1.0730891 4.8950052 3
5.4590364 -0.99537951 4.8775783 2.8333333
7.3722367 -1.0450338 5.008287 4
-5.6078796 -0.74787295 4.8319492 4
-5.5289454 -0.72400892 4.8971095 4.5
-2.4203284 -0.59354645 4.8113451 3
-2.1910386 -0.68707001 4.8268719 2.5
-0.87080353 -0.59284687 4.9515858 4
0.64824396 -0.40055332 4.9563465 3
0.89981419 -0.6642487 5.1031156 3.3333333
3.7767389 -0.44320682 5.135848 3
4.6264868 -0.64709252 5.0801592 3.5
5.4321051 -0.60955369 4.975059 4
7.0725265 -0.65072912 4.9573698 3.6666667
-5.4068394 -0.079946585 5.0599289 7
-2.6913726 -0.095867582 4.8337159 6.6666665
-2.0483837 -0.069910154 4.8210616 6.7857141
-1.8727524 -0.11126903 4.8557763 6.6999998
-1.0028862 -0.093941055 5.0047183 6.8888888
-0.50054514 -0.23759532 4.9836941 5.5
-0.027579684 -0.24590074 4.9523978 6
0.2382161 -0.10566003 4.9458566 6
0.60407084 -0.13597581 4.9799266 6.1666665
5.3994017 -0.11537173 4.9578328 6.75
6.3471146 -0.18315578 5.0903101 6.5
6.9960737 -0.11518561 4.9796247 6.731884
7.8931575 -0.09384758 4.8542924 7
11.214546 -0.22001502 4.8733401 7
14.530695 -0.16747111 4.9185438 7
-5.3610215 0.31628761 5.1068816 8.0110006
-2.6737676 0.32394648 4.8617363 8.5
-2.1186938 0.28854012 4.8213844 8.3211002
-1.8573366 0.2843833 4.8161035 8.333333
-1.0345083 0.27824274 4.9479775 8.3399162
0.75984192 0.26971036 5.0330882 8.8900003
0.94869196 0.28451607 5.08705 8.5311365
3.7965875 0.24747825 5.03093 9.0101166
4.5837779 0.19309558 4.8571572 8.2814007
5.4339366 0.2429276 5.0211215 8.15627
5.8393927 0.23669526 5.1992021 8.0299997
6.0622487 0.20781742 5.1104884 8.0526667
7.0482836 0.286603 4.9203138 8.0044374
7.4218149 0.29736939 4.8394074 8.0375004
7.8546143 0.30375531 4.8552456 8.0170555
-5.6305966 0.63983905 4.8317537 9
-5.4585667 0.59578812 5.0309095 8.5931835
-4.6908402 0.59344047 5.1074419 9.0570002
-2.6701088 0.53877431 4.8270636 9.8745718
-2.2015989 0.57616836 4.8271484 10.333333
-1.7854555 0.62514955 4.8153539 10.635714
-1.4310532 0.73793894 4.8882389 11.391
-1.0378165 0.64353186 4.9233675 10.671387
-0.60314339 0.73195159 4.9260955 11.468417
-0.14729576 0.73371637 4.9638519 11.592714
0.17106956 0.72047597 4.9453087 11.419333
0.60458547 0.70686662 4.9757175 11.592674
0.98953021 0.66414231 5.0656829 11.324213
1.3752491 0.70542669 5.0186315 11.127469
3.7978194 0.46091637 4.9337087 11.239555
4.3594284 0.75368625 4.9814854 10.061749
4.4482851 0.63294458 5.019309 12.180375
5.0637722 0.53613234 5.006403 10.049167
5.4336348 0.56095338 5.0143642 9.4632835
5.8007421 0.6248976 4.8876657 9.5836258
6.1344256 0.64900869 4.8983116 10.388
7.0593896 0.59208238 4.9451575 9.3975019
7.3642135 0.5952571 4.8687873 9.0739164
7.8894768 0.6200487 4.876667 9.0121593
11.519512 0.60159814 4.9890118 8.0897503
11.637305 0.62099659 4.977097 8.1035004
12.106324 0.64239734 4.9003043 8.1040001
20.407536 0.42372429 4.8688669 8.0930004
-5.6301026 1.0510644 4.9923129 10.575999
-5.5150928 0.91594887 5.0415907 10.103645
-4.6903062 0.8250137 5.099566 10.057
-2.6580381 0.97009397 4.8273883 12.666667
-2.095942 1.0286317 4.8190198 13.072739
-1.7265863 0.98636723 4.8171148 13.435625
-1.433287 1.0086491 4.8845978 13.002785
-0.99361861 1.009061 4.9201708 13.119344
-0.57433397 0.97863567 4.916728 13.208728
-0.18708257 0.9462831 4.9498219 13.181644
0.1913693 0.94728005 4.9536676 13.325269
0.60072017 0.97303355 4.9702611 13.214059
0.94532794 0.98955154 5.0599694 13.182549
1.4167511 0.99256849 5.036994 12.926255
4.3462448 1.0590507 5.1015115 11.419708
4.4493108 0.8358804 4.9411764 14.05575
5.4965806 0.98715574 4.9830689 11.381975
7.0635676 1.0249687 4.942677 11.283911
7.4465752 0.97186941 4.874392 11.387166
7.8853951 1.0513057 4.886991 11.075183
17.584002 0.85844272 5.1240864 8
17.720043 0.89921123 5.1312594 8
20.386337 1.0104456 4.8733664 8.0799999
20.427534 1.0144062 5.0461569 8.0734997
-5.6451507 1.415607 5.0143909 11.930942
-2.0893447 1.355967 4.820138 14.021667
-1.7792988 1.2812746 4.8081989 14.042749
-1.4455525 1.2820798 4.8703847 14.025636
-1.0569667 1.2705188 4.9003682 14.027
-0.48161289 1.2770232 4.9323702 14.03625
-0.13085496 1.2780784 4.9607072 14.037001
0.30966997 1.2830555 4.9749861 14
0.67615271 1.2983234 5.000844 14.039
0.96064198 1.2591608 5.0564413 14.01595
1.4301529 1.2812463 4.9880424 14.027333
4.3489342 1.344449 5.1029844 12.703416
5.456337 1.3834776 4.9608917 13.027572
7.0495739 1.2573149 4.947485 12.5
7.3311548 1.3632684 5.0224309 12.561573
7.895225 1.3951551 4.8801141 12.347515
17.756342 1.4884517 5.155273 9
-5.6479449 1.796259 5.0154481 13.154217
5.443882 1.8484974 5.0826368 13.84425
5.9492683 1.9343637 5.0694332 14.0965
6.1876287 1.9832718 5.0711694 14.097
7.1389704 1.949977 5.16363 13.09725
7.4972844 1.9547051 5.1533651 13.099
17.772335 1.9353149 5.1341305 10
20.429527 1.6667142 4.9785748 9.0767498
-5.6541481 2.1765139 4.9786081 13.650063
-4.9311895 2.3040645 4.8656325 14.103
6.1453228 2.0456648 5.0612583 14.09575
7.0058918 2.1649816 5.1410546 14.0985
7.2325916 2.1490963 5.1542654 14.1005
17.284178 2.3794053 4.9196706 11.073
17.755915 2.09813 5.0383515 10.030833
9.9213715 2.5925202 5.1925774 14.0885
12.715607 2.7938781 5.055264 14.071
14.078041 2.4523563 4.8710637 12.0785
17.389158 2.6762819 4.9957156 11
12.659201 2.965698 4.9757996 13.29585
15.481215 2.9679215 4.9782906 12.582001
17.399912 2.9293199 4.9507823 12.073
17.699444 -2.8373334 5.479424 3
17.762943 -2.5856037 5.2172446 3
17.773525 -2.3054874 5.5145378 3
17.767572 -1.9838623 5.2288961 4
4.5914226 -0.80204266 5.2306147 4
5.3974218 -0.88131595 5.3019114 4
7.0440769 -0.81097072 5.4789429 3
-5.4089165 -0.12839931 5.3107519 7
-1.0329455 -0.26515085 5.2265205 6
6.946424 -0.081973188 5.4357591 6.8333335
14.522516 -0.1746006 5.2455778 7
4.5610495 0.21081758 5.3639832 8.3971462
5.4092741 0.22241792 5.3522134 8.1270504
6.9882112 0.25716934 5.3407989 8.0057497
17.71125 0.38170356 5.5995378 8
-4.6232262 0.59733969 5.2291365 9.0574999
3.8052747 0.55732203 5.3645859 11.55
4.316812 0.75351477 5.2081022 10
4.6000447 0.44480261 5.3634868 10.05475
5.3911939 0.54928946 5.2811999 9.7161665
6.9909639 0.61806267 5.3657069 9.4285793
14.471252 0.79074281 5.4644718 8.0904999
1.3788327 0.89647442 5.223989 13.122
4.3386884 0.81589746 5.3404369 10.091
4.4188099 0.89393437 5.2484055 14.05425
5.5236559 0.86637133 5.3480396 10.095
6.9978499 1.0303189 5.365572 11.547413
17.420298 0.85208488 5.4306288 8.0359993
17.719662 0.90691972 5.43119 8
20.35746 1.0890874 5.2486014 8.0924997
5.5426645 1.3827393 5.264504 13.33275
7.0105038 1.3080382 5.4097629 12.552527
17.731358 1.4917586 5.4469252 9
5.1502037 1.9278512 5.4539676 14.092751
5.7654223 1.9252599 5.406424 14.096001
6.2376785 1.9402521 5.2107573 14.09875
6.6917315 1.9187334 5.5095625 13.09575
7.0270629 1.9100102 5.5010691 13.0975
7.4172211 1.9550118 5.3260522 13.428082
8.3139629 1.9748639 5.4338465 14.073
8.7131519 1.9995553 5.3547564 13.087
8.9357414 1.9419917 5.407361 12.049812
9.4385014 1.967069 5.4120455 13.302251
11.542489 1.9528713 5.5488734 11.1015
20.390228 1.7924063 5.266993 9.0924997
-5.6374197 2.2925365 5.2246809 14
7.47966 2.0027032 5.2067552 14.086
7.9351463 2.1104593 5.2021389 14.0865
8.0895147 2.1313517 5.2190661 13.2665
8.5850401 2.1754439 5.2631974 13.410333
8.9340229 2.2492952 5.2839622 13.29375
9.5303783 2.2063627 5.3438516 12.6005
10.10518 2.1963208 5.3923225 12.544125
10.706487 2.2042694 5.452951 12.102
11.373296 2.3483975 5.4811993 13.396167
12.220184 2.0281577 5.5570354 11.1025
12.478747 2.1847458 5.5614667 12.397834
12.830822 2.1343486 5.5805759 11.1025
14.491665 2.2525015 5.4960098 11.0905
17.227432 2.3886449 5.5796871 11.072
17.72723 2.1056907 5.3713608 10
8.1666908 2.4638872 5.2447286 14.099125
8.6198215 2.5384171 5.2794433 14.067333
8.8924198 2.6622965 5.2944493 14
9.5119286 2.6803601 5.3467779 13.8505
9.9140129 2.5713775 5.3654284 13.573501
