# .PCD v0.7 - Point Cloud Data file format
VERSION 0.7
FIELDS x y z intensity
SIZE 4 4 4 4
TYPE F F F F
COUNT 1 1 1 1
WIDTH 1180
HEIGHT 1
VIEWPOINT 0 0 0 1 0 0 0
POINTS 1180
DATA ascii
-1.7927508 -0.59598988 -2.4699972 3.75
-1.4530936 -0.52861136 -2.4299331 3.75
2.9462206 -0.54380119 -2.6153169 3.5
3.3511367 -0.60416168 -2.7839479 3.5
-5.0702715 -0.1416741 -2.7775216 7
-4.1441493 -0.15263067 -2.6475022 7
-3.8032184 -0.14020041 -2.6221962 7
-3.4255238 -0.12083776 -2.6071997 7
-2.9903238 -0.12365132 -2.5346422 6.8888888
-2.5995541 -0.15056202 -2.513782 6.6875
-2.2354486 -0.18576574 -2.4803674 6.4523811
-1.8594924 -0.14843988 -2.4630075 6.5714288
-1.4536587 -0.1650984 -2.4126208 6.0714283
3.1905112 -0.19106957 -2.7745614 6
3.422756 -0.18205345 -2.6341012 6.1666665
3.8014262 -0.25076392 -2.5532515 5.909091
4.2071838 -0.25164771 -2.6140199 5.8571429
4.4565053 -0.23933464 -2.6699197 6
5.4941521 -0.10059658 -2.7523677 7
5.6143475 -0.045551833 -2.7033343 7
10.416134 -0.14297867 -2.5224831 7
-4.9530692 0.30381954 -2.7148798 8.0396662
-4.419591 0.35048544 -2.6435647 8
-4.1773229 0.37625298 -2.6389954 8.0184288
-3.758291 0.33350021 -2.6166344 8.0217857
-3.3840721 0.32852882 -2.5763664 8.0248184
-2.984875 0.28887358 -2.5527723 8.0263176
-2.5520885 0.29507375 -2.5280981 8.0430145
-2.188333 0.31621987 -2.5013855 8.0540104
-1.8184131 0.32569948 -2.4673417 8.1828127
-1.4807639 0.33792973 -2.4472003 8.2526255
3.1849475 0.28653467 -2.4128153 9.0857506
3.3203037 0.26251727 -2.7293935 8.4407339
-12.444088 0.76751912 -2.7407722 8.0839996
-11.116987 0.75813258 -2.7830939 8.1014996
-9.372385 0.71611303 -2.7708554 8.0437498
-5.2589989 0.75598049 -2.7309327 9.0392494
-4.9523268 0.58734775 -2.7091377 8.4955864
-4.6098208 0.584207 -2.6840189 8.5546064
-4.1783118 0.61087555 -2.6566341 8.7937937
-3.7702496 0.61116964 -2.6333692 8.7864904
-3.3898122 0.62089568 -2.6018007 8.9493065
-2.9913411 0.61830974 -2.5669072 9.0938253
-2.5790248 0.6097247 -2.5406313 9.0858803
-2.1816583 0.60883415 -2.5064552 9.2174139
-1.7846793 0.63112301 -2.4753699 9.5646944
-1.4119905 0.63785946 -2.448406 9.6418896
-1.0164833 0.73311824 -2.4095969 10.763947
-0.64661437 0.70693713 -2.4204214 9.6901665
2.9698644 0.73326486 -2.5344379 11.371063
3.3173547 0.47071564 -2.7335489 9.8137503
-12.837425 0.90650159 -2.7718475 8.0873327
-12.630882 0.82880586 -2.7697513 8.0799999
-11.879527 1.0478214 -2.7098162 8.7389994
-11.387246 0.9173668 -2.6823752 8.4115
-10.503521 1.145821 -2.6018405 9.0740004
-10.137793 1.0895588 -2.6650314 9.0743752
-9.6225357 0.9402138 -2.6329029 9.0620003
-9.0690479 1.1752203 -2.7188385 9
-5.3709712 1.011223 -2.7409639 10.129292
-4.96136 1.0002331 -2.7190449 9.9713926
-4.6006594 1.026086 -2.6961641 10.08952
-4.2140241 1.0255038 -2.6651657 10.261493
-3.7892804 1.0341887 -2.6382122 10.357066
-3.3947442 1.021596 -2.6073492 10.539213
-2.9873648 1.0279565 -2.5731585 10.793913
-2.5606349 1.0073597 -2.5401671 10.971898
-2.1694777 1.0160775 -2.5079 11.153969
-1.7908862 1.0012832 -2.4771128 11.381907
-1.4082147 1.0104645 -2.4490864 11.62067
-1.0451732 0.99508184 -2.4234056 11.395811
-0.68889081 1.0135167 -2.4077477 11.559333
2.9515164 1.0282077 -2.4734313 12.690572
10.341562 0.90984404 -2.6963813 9
-27.939144 1.4599842 -2.4653845 8.1219997
-12.995486 1.2816695 -2.6948333 9.0705004
-12.655844 1.4201943 -2.7660773 9.0860004
-11.670369 1.4404669 -2.687676 9.5734997
-11.244579 1.4887371 -2.7085721 10.063
-11.051056 1.3241003 -2.6766477 9.3413754
-10.621174 1.4915875 -2.6338139 9.7468338
-10.137686 1.4306976 -2.7018631 9.8358126
-9.7718859 1.5353374 -2.6196856 10.55675
-9.4400358 1.5221492 -2.7364161 10.397918
-9.1225529 1.5811343 -2.7138028 10.338249
-5.3820243 1.4483389 -2.7427382 11.412453
-4.9747338 1.4219807 -2.7245543 11.322687
-4.5938706 1.4233826 -2.6925564 11.667341
-4.215353 1.4161475 -2.6658983 11.714445
-3.7778916 1.4095572 -2.6402583 11.819213
-3.3796167 1.4013642 -2.6089714 12.007836
-2.9922118 1.4056917 -2.5723531 12.456632
-2.5968986 1.3956954 -2.5392845 12.530011
-2.189738 1.412809 -2.500443 12.597831
-1.8107872 1.3970287 -2.4725883 12.94948
-1.3855624 1.4056842 -2.4392173 12.909677
-1.0448724 1.4041822 -2.4155741 13.25955
-0.78031683 1.230514 -2.4022739 12.0815
2.9354353 1.3278804 -2.5052805 14.03125
10.339023 1.2651917 -2.7055168 10
-27.902943 1.6849962 -2.6581836 8.0992498
-10.982616 1.6615622 -2.5859334 10.0815
-10.122405 1.6693081 -2.5309527 10.718333
-9.6539869 1.6100963 -2.54498 11.03
-9.4564142 1.6102049 -2.5660911 10.101
-9.0761509 1.6432408 -2.6548479 10.236438
-5.3897161 1.8300002 -2.7583642 12.663749
-5.0160236 1.8304411 -2.7281194 12.652152
-4.6099148 1.8046557 -2.693954 12.859512
-4.2209673 1.7995899 -2.6708586 12.82301
-3.8045292 1.7891711 -2.6471858 12.989697
-3.3918839 1.7851191 -2.6192467 13.096966
-3.0259843 1.8021588 -2.5867245 13.262833
-2.6373658 1.7754191 -2.5567973 13.555932
-2.1948221 1.7989326 -2.5177372 13.647057
-1.8235275 1.7579206 -2.4844465 13.947697
-1.3957381 1.750291 -2.4515297 13.968231
-1.0493715 1.7256116 -2.4253895 14.050361
-0.75987363 1.7103689 -2.4084365 14.0765
10.343364 1.6376648 -2.6089818 11.079083
-22.689587 2.3048024 -2.6996567 9.0900002
-22.022423 2.1824317 -2.6739893 9.0974998
-17.289381 2.3798244 -2.5180867 10.084416
-14.437311 2.307271 -2.5932643 11.049
-14.340119 2.2587209 -2.5697536 10.560187
-11.828651 2.3530283 -2.7522767 12.031001
-10.947715 2.3578668 -2.5248623 11.57775
-10.671008 2.279032 -2.6798284 11.257958
-9.8431654 2.3291526 -2.6893425 12.554188
-9.3594131 2.3099296 -2.6463401 12.067
-9.0509872 2.3109355 -2.7080631 12.591749
-8.5441523 2.292794 -2.5898423 13.25515
-8.1985798 2.3239005 -2.6532922 13.061625
-7.799191 2.2965975 -2.6008098 12.418376
-7.3746495 2.2761459 -2.6530564 12.934714
-7.04527 2.3125749 -2.5709534 13.333438
-6.5640697 2.291429 -2.7033324 13.57525
-6.1905475 2.2890587 -2.6347268 13.411667
-5.7888818 2.259757 -2.621474 13.430861
-5.3571301 2.2170675 -2.7045612 13.348883
-4.980351 2.1756816 -2.7092383 13.346884
-4.5933781 2.2114892 -2.6388745 13.708546
-4.2109795 2.1841116 -2.6297357 13.601421
-3.8127182 2.167665 -2.6387885 13.88775
-3.4121909 2.1543396 -2.6055677 13.982166
-3.0140688 2.1248126 -2.5859468 14.069215
-2.68893 2.0767279 -2.568614 14.040125
-2.206542 2.0679417 -2.5267701 14.03775
-1.9469857 2.015635 -2.5081322 14
9.1943207 2.2034154 -2.7124724 13.122
9.3189583 2.2125251 -2.7727516 13.112
-27.457022 2.4422662 -2.464628 9.0719995
-21.316826 2.7578967 -2.537178 10.073
-20.043865 2.4357243 -2.42419 10.0255
-18.650169 2.7056658 -2.6471155 10.086
-14.45293 2.4525247 -2.5804458 11.07025
-13.303222 2.5494101 -2.5817738 11.760928
-13.175929 2.5958169 -2.6207557 11.556
-11.227944 2.4201972 -2.7638381 11.0885
-11.004773 2.4547772 -2.5741076 12.072001
-9.8470526 2.6514261 -2.6808484 13.05625
-9.3470306 2.5913603 -2.5790384 12.805795
-9.0453606 2.623451 -2.6523356 12.682899
-8.6205301 2.529381 -2.6857235 12.746666
-8.1796246 2.6904626 -2.6353002 13.334249
-7.9773636 2.7095621 -2.6068563 13.1
-7.4254956 2.5956545 -2.5763819 13.746334
-7.013937 2.5602782 -2.5797834 14.0805
9.3182983 2.4486029 -2.6304309 14.1005
10.097898 2.7215111 -2.4245536 14.1105
10.665091 2.5010188 -2.404006 13.1195
10.986477 2.5699768 -2.6510305 13.1205
-15.805247 2.8286383 -2.6576486 11.085
-13.06112 3.0607693 -2.5838342 12.562125
-11.349696 3.123266 -2.5703452 13.0835
-10.978271 3.1356082 -2.6777246 14.063
-9.7708998 2.9355357 -2.6995761 14.0665
-8.8523426 2.9407883 -2.567874 13.581062
-8.6067638 2.9338236 -2.6617932 13.58875
-8.2069845 2.8171287 -2.6538866 13.0815
-11.769972 3.2202301 -2.7105651 14.031
-4.5097756 -1.0186397 -2.1721897 4
-1.0422738 -0.92384714 -2.1253169 3
-0.039389372 -1.041332 -2.3407013 2
0.12497294 -1.0457156 -2.1621823 2
0.72951943 -1.0223318 -2.2827942 2
1.0151412 -0.93299425 -2.2719886 2
1.4433845 -0.92721403 -2.2353055 2
1.8819858 -0.84187365 -2.1857998 2
2.2926621 -0.873173 -2.1656466 2
2.5920773 -0.86127561 -2.1381643 2
2.831953 -0.88459402 -2.1283371 2
-4.5123863 -0.73622298 -2.3456745 5
-0.49934027 -0.4970367 -2.3586178 3.4444444
0.15306848 -0.47359997 -2.3078427 3.5962965
0.58555222 -0.50715739 -2.2851098 3.4428573
0.95439625 -0.49788585 -2.2546897 3.4583333
1.3609461 -0.69270408 -2.2240775 3.4000001
1.9002638 -0.75268137 -2.1866412 2.5
2.2117412 -0.59103423 -2.1603601 3.0726192
2.6391995 -0.5662297 -2.1253939 3.1868279
2.8972938 -0.52694839 -2.1148767 3.3734848
3.2095766 -0.63258994 -2.1452301 3
-1.3759638 -0.15073873 -2.2723575 6.5
-0.98701483 -0.29236746 -2.3533914 5.5
-0.50477827 -0.21584988 -2.3363185 5.5
-0.27903256 -0.14506344 -2.2114685 6
0.1469347 -0.16351801 -2.275924 6.0222225
0.58126217 -0.14957775 -2.2542794 6.1428571
1.0150772 -0.19591676 -2.2185562 5.5178571
1.9147644 -0.14587851 -2.09062 6.1666665
2.2521365 -0.13425654 -2.1060882 6.3335934
2.6031663 -0.15605432 -2.0961895 6.189899
2.9212372 -0.17056319 -2.1074774 6.0906806
3.4117715 -0.22617538 -2.2546864 5.8125
3.7911828 -0.25274867 -2.2668102 5.8000002
4.2083035 -0.24686828 -2.2177017 6
4.5184374 -0.24384527 -2.0844097 5.5
5.3425732 -0.23805425 -2.2013266 6
-5.0743866 0.35479194 -2.0821967 8.1204996
-4.5269542 0.37969676 -2.2240918 8.0703325
-1.2339433 0.20579293 -2.3969421 8.333333
-0.52674532 0.29842055 -2.1275649 8.7298956
-0.014015675 0.26804128 -2.2237837 8.0985003
0.18933883 0.28708357 -2.2631192 8.21103
0.60789603 0.27910548 -2.2688894 8.2226954
0.98987198 0.27676117 -2.2383592 8.3097343
1.3957418 0.28720939 -2.2053235 8.4204693
1.8091816 0.2957693 -2.1707942 8.4523144
2.1963305 0.27329376 -2.1361001 8.4380121
2.613939 0.27086556 -2.1041331 8.4372244
2.986119 0.25502932 -2.1308215 8.3427382
3.2636266 0.26237532 -2.1883521 8.2654047
-5.2912054 0.5817495 -2.1320355 9.0579996
-5.1829133 0.4639352 -2.0275042 8.1164999
-4.5551791 0.57730877 -2.1356866 8.7008753
-1.2868466 0.50197124 -2.3962507 9
-0.93993294 0.70003384 -2.3735578 10.273444
-0.66407013 0.6374622 -2.3329785 10.299727
-0.12082922 0.6727159 -2.2777612 10.487096
0.1901563 0.608365 -2.2941389 10.19482
0.60679352 0.60521275 -2.2796488 10.174861
1.0016828 0.604931 -2.2470522 10.343672
1.4013908 0.61116195 -2.2146642 10.540734
1.8104781 0.61116594 -2.1778295 10.621162
2.1910031 0.62745535 -2.1438982 10.972386
2.6129715 0.61751807 -2.1096561 10.83505
2.9826455 0.56028694 -2.1392496 10.471119
3.2738616 0.46199542 -2.2143302 9.5537977
-4.7056394 0.90391761 -2.0908358 10.153666
-0.88802075 0.99616885 -2.3925366 12.564341
-0.59659648 1.0122839 -2.3647785 12.373573
-0.18318699 1.0083445 -2.3309462 12.362579
0.1877895 1.004548 -2.3137684 12.579193
0.59537172 1.0086237 -2.2816887 12.664778
0.99676412 1.006223 -2.2505178 12.953997
1.3934413 0.98814297 -2.2157426 13.100767
1.7911788 0.98617291 -2.1826155 13.120587
2.1858501 0.98099893 -2.1460676 13.28413
2.6196775 0.96954942 -2.1106131 13.355641
2.878798 0.98298782 -2.1102078 13.294731
-27.935532 1.5713663 -2.2406206 8.0965004
-1.31681 1.2428141 -2.3992755 14.0655
-0.90691566 1.3861932 -2.3845453 13.60111
-0.63705605 1.3956596 -2.3774798 13.436737
-0.18336917 1.3728919 -2.343925 13.649117
0.19130431 1.3561425 -2.3187962 13.801766
0.60820669 1.3219519 -2.2852311 13.868981
0.99462909 1.3185946 -2.2584598 13.921551
1.3923756 1.2926612 -2.2225604 13.960498
1.7448053 1.275777 -2.1854923 14.028916
2.1732171 1.2903306 -2.1537926 14.021018
2.6408315 1.2735102 -2.112303 14
2.8794045 1.2434061 -2.0897176 14.023199
-27.921272 1.6435751 -2.206491 8.0890007
-1.3210721 1.6196712 -2.3892417 14.092
-0.86137688 1.6757168 -2.3792994 14.0355
-0.67660213 1.6717443 -2.373733 14.040751
-0.3169139 1.6472654 -2.3630073 14.054125
0.17915702 1.6225674 -2.3250153 14.06975
-22.598072 2.3515277 -2.3103306 9.0970001
-22.080395 2.2645798 -2.3459191 9.0869999
-17.339025 2.3727322 -2.2169411 10.086167
-14.42154 2.2341702 -2.1253474 10.407001
-14.376301 2.2615409 -2.1653819 10.564
-12.46647 2.3094075 -2.3800302 11.0805
-10.939792 2.3544192 -2.2438183 11.089949
-10.56374 2.1860507 -2.2545176 11.267041
-8.6689739 2.2000551 -2.0933275 12.573875
-7.3120017 2.3190467 -2.3659139 14.065
-7.1546273 2.251406 -2.3303416 13.0815
-6.6418786 2.2600312 -2.1911035 13.5765
-6.2126389 2.3211577 -2.3300407 13.412333
-5.7815008 2.2602625 -2.3068426 13.239286
-5.4405994 2.2773678 -2.2090421 13.282949
-5.1098351 2.3058994 -2.1829476 13.760083
-4.5602441 2.2863016 -2.2570827 14.100451
-4.2358155 2.2912292 -2.2355447 14.091312
-3.7736301 2.282023 -2.3051407 14.080126
-3.4976482 2.2802353 -2.2331367 14.07825
10.245206 2.1895998 -2.0937729 12.685213
-27.484331 2.4786036 -2.2014363 9.0679998
-21.347076 2.7172458 -2.1032834 10.0725
-17.337612 2.5109327 -2.3239415 10.112
-14.506223 2.4143343 -2.0614972 11.07
-13.345828 2.5480602 -2.3070321 11.653501
-11.013102 2.4938116 -2.1884303 12.553875
-9.2957344 2.5439222 -2.2187839 12.741194
-9.0613842 2.65731 -2.1661696 13.088625
-6.4290581 2.4330883 -2.3751042 13.0805
-5.2126875 2.5041952 -2.0443015 14.09415
-5.1645966 2.483691 -2.16258 14.100312
-4.5056987 2.4667234 -2.2213697 14.081875
9.1284742 2.4803536 -2.2679121 14.1155
9.3044977 2.4671772 -2.2160332 14.112149
9.8369312 2.5338924 -2.2876348 14.106501
10.271538 2.6589599 -2.2569592 14.1025
10.461473 2.5062389 -2.2960997 13.606
13.050153 2.4614429 -2.0088744 12.1115
-21.295422 2.8633208 -2.0615425 10.078
-15.851435 2.8203461 -2.1002152 11.082
-13.100687 3.0693519 -2.1755438 12.80375
-12.619662 3.1575024 -2.0116529 13.0715
-11.271 3.0996914 -2.1363339 13.0845
-11.000333 3.144084 -2.2571411 13.740167
-8.9076958 2.9207087 -2.1871538 13.223031
-0.66105729 -0.95029801 -1.8520836 2
-0.14827418 -0.9631055 -1.9816213 2
-1.2712599 -0.6259467 -1.8980418 2.6666667
-0.96162653 -0.72291231 -1.8911419 3.3333333
-0.59775424 -0.58092552 -1.7575693 3.6666667
-0.17892368 -0.56388414 -1.6897129 3.6666665
0.07739532 -0.68355334 -1.9285736 2
1.7707045 -0.45245454 -1.7541151 3
-0.65230387 -0.17397869 -1.7385718 6.0728073
-0.17054045 -0.17339915 -1.6853673 6.2843752
0.030770361 -0.16284598 -1.6978097 5.9375
2.1362066 -0.24299747 -1.8124269 5.3333335
2.8595853 -0.25072125 -1.659712 5
3.4451299 -0.2610704 -1.7024664 5
3.8891709 -0.27007052 -1.8676081 5.3333335
4.2042708 -0.2493598 -1.7723737 5.5
4.6452289 -0.24602868 -1.8658102 6
-4.6628647 0.3819828 -1.9368727 8.0735626
-1.3096087 0.1440018 -1.8461269 8.0821667
-1.0562848 0.1780683 -1.9068749 8.2013121
-0.65019429 0.23200345 -1.8185892 8.1985798
-0.11215151 0.25672841 -1.6949908 8.3209019
0.086876065 0.27024472 -1.8729602 8.3859386
1.7410784 0.079953425 -1.6078498 8.1184998
2.083915 0.097747184 -1.774485 8.0930004
-5.2229052 0.51541334 -1.9984018 8.0799999
-4.8388405 0.42488551 -1.8704672 8.0799999
-4.6175137 0.5162546 -1.9242254 8.451354
-0.9587456 0.45087752 -1.9185371 9.8531494
-0.58107704 0.52442348 -1.9015167 9.7794247
-0.091259979 0.59654593 -1.9359761 10.537579
0.055931069 0.54553974 -1.9658085 9.9753485
-4.7870345 0.88464773 -1.9971294 11.0255
-0.13289428 0.8323282 -1.9374716 13.0615
-27.922516 1.5580045 -1.7471644 8.1040001
-27.932159 1.6420097 -1.7923626 8.0887499
10.249606 1.9727226 -1.8943212 12.116688
-22.631603 2.2731957 -1.8528196 9.0953751
-22.110201 2.1609855 -1.8203779 9.1085005
-18.109701 2.1990211 -1.6892489 10.026
-17.371422 2.389535 -1.9907856 10.0845
-14.493915 2.2973063 -1.8123657 11.044583
-13.195917 2.3828211 -1.8777164 11.125
-12.523959 2.2604008 -1.7178143 11.0765
-12.364438 2.2566752 -1.8335667 11.078751
-10.953677 2.3300323 -1.6546957 11.09
-10.596372 2.2208393 -1.7980071 11.344958
-9.3305302 2.3281002 -1.832 12.12375
-8.6577625 2.2487328 -1.8352882 13.200143
-6.6785755 2.2302635 -1.7698274 13.577625
-5.7656097 2.2526298 -1.778965 13.584813
-5.3866906 2.2831757 -1.7779483 13.595542
-5.1686006 2.3915277 -1.6949371 14.094625
10.256842 2.2903926 -1.8030847 13.012401
-21.372314 2.6722696 -1.6765513 10.072
-17.320541 2.4932377 -1.9336345 10.099501
-14.52803 2.4366245 -1.7386115 11.071501
-13.606501 2.4574897 -1.6836803 11.086
-13.33061 2.5808384 -1.8333006 11.842951
-13.176806 2.6509094 -1.8790232 11.424167
-11.203845 2.6019084 -1.7882857 13.0325
-11.032204 2.4962857 -1.8285398 12.39475
-9.3075237 2.5392532 -1.790099 12.450705
-9.0725021 2.6417627 -1.7906432 12.853001
-5.2353549 2.4110177 -1.7222239 14.109666
-5.1585979 2.5048907 -1.9058727 14.080626
-4.5651493 2.4677615 -1.9155219 14.0805
9.365736 2.4887722 -1.7355735 14.113531
9.8641853 2.5473278 -1.8134894 14.10925
10.203986 2.5870559 -1.7479647 14.100166
13.262896 2.5415299 -1.8897451 12.118
13.602674 2.6032102 -1.6130323 12.116
-13.209593 2.9909291 -1.6876028 12.5595
-13.146502 3.0501814 -1.8718319 12.4754
-12.158415 3.1906848 -1.8309174 13.55475
-8.9421616 2.9290876 -1.8055015 13.428612
-0.80069757 -0.45578739 -1.5977736 4
-1.8685682 -0.25135988 -1.5365839 6
-1.4306939 -0.23735946 -1.2266078 6
-0.99580473 -0.26413196 -1.344883 5.875
-0.7272774 -0.27247402 -1.4853251 6
1.8579683 -0.12052768 -1.4136932 6.333333
2.1140199 -0.19646811 -1.2666638 5.1666665
3.0171645 -0.24485292 -1.5386913 5
3.452224 -0.2387034 -1.3710277 5
3.7692556 -0.24453466 -1.4729563 5.3333335
4.2159901 -0.25209388 -1.3814859 5.5
4.7306504 -0.24298504 -1.3527358 6
-0.11951891 0.30126941 -1.5719395 8.2374163
1.9016136 0.090150625 -1.4461095 8.0681181
2.0349014 0.081155732 -1.4793789 8.0566998
-27.939316 1.5111979 -1.4036627 8.0970001
-27.941372 1.6423057 -1.4600846 8.0885
10.309691 1.9648601 -1.5043806 12.1155
-23.987001 2.1848569 -1.4496348 9.0734997
-22.669292 2.2859674 -1.3351661 9.0880003
-22.135788 2.174931 -1.3890866 9.0998001
-17.264702 2.3585169 -1.3455372 10.087
-17.110998 2.3583615 -1.4784682 10.083
-14.497688 2.2426229 -1.3543518 10.2847
-14.326551 2.2026837 -1.3121576 10.56825
-11.06247 2.3510261 -1.5352457 11.086
-10.659554 2.251375 -1.4564176 11.088333
-8.6808491 2.2689528 -1.4678085 13.304625
-6.8600969 2.2360439 -1.3145089 13.578875
-6.6461973 2.2527933 -1.3422514 13.083
-5.6833096 2.2706323 -1.4496487 13.335938
-5.2474556 2.3507414 -1.4578905 14.1069
-5.1705427 2.3405342 -1.2411501 14.08175
10.392285 2.2408981 -1.4958096 12.863875
10.709557 2.2275426 -1.4419521 12.613334
-27.55785 2.7272954 -1.3841691 9.0885
-25.796082 2.4801612 -1.2445538 9.1140003
-21.387196 2.6805036 -1.4544156 10.068
-14.553459 2.4639928 -1.4172634 11.073
-13.394615 2.555753 -1.4446505 11.654851
-13.158228 2.6442387 -1.5686815 12.066
-11.049947 2.5028343 -1.3910831 12.8435
-9.9445286 2.4051068 -1.2299913 12.125
-9.3102474 2.5249021 -1.4147552 12.426167
-9.0512238 2.7205825 -1.4457216 13.5975
-5.2543797 2.4840086 -1.4243917 14.087
9.3976231 2.510174 -1.4387944 14.1185
9.9696121 2.6236074 -1.3427267 14.11475
10.219611 2.6477783 -1.2164422 14.1115
10.556129 2.48192 -1.4269992 13.605
10.804813 2.4510224 -1.4085126 13.1165
11.542403 2.5767891 -1.5852934 13.1115
11.727785 2.6620677 -1.5466 13.118
12.271177 2.7220697 -1.5760665 13.1035
13.550276 2.6035655 -1.4685028 12.1165
13.736297 2.5908506 -1.4832417 12.115417
-15.890687 2.8081734 -1.5172615 11.0865
-13.182374 3.1289995 -1.5897911 13.066
-11.434479 3.0993104 -1.4017023 13.085751
-11.126572 3.1726089 -1.4676616 14.06975
-8.9739418 2.8905611 -1.338517 13.207141
12.63654 2.8566504 -1.4799931 13.116751
13.107467 2.9241352 -1.3575704 13.113035
-1.2730067 -0.26254311 -1.1776989 6
-0.99827474 -0.24892199 -1.0515409 5.6666665
-0.61299342 -0.26291707 -0.94211531 6
-0.14773679 -0.26085377 -0.85463846 5.5
1.2351673 -0.32184875 -0.93439639 3.5
1.7354667 -0.29826105 -0.99302119 3.75
2.1519001 -0.24252813 -1.0650191 5.25
2.510123 -0.24872576 -0.83596379 5
3.4192188 -0.24576946 -1.049861 5
3.8788083 -0.24377471 -1.0095012 5
4.278923 -0.18667687 -0.99811023 5.5833335
4.4762864 -0.18495214 -1.0219656 5.9285712
1.471956 0.093222871 -0.99986058 8.0969
1.6861345 0.074238151 -0.95787191 8.0999994
4.3023577 0.27032647 -0.95294756 8.824008
4.2931247 0.52786082 -0.95260727 10.635634
4.5936885 0.5571596 -0.92493182 11.276888
4.964612 0.53868657 -0.90316647 10.792564
5.0064769 0.81161523 -0.92177677 11.119166
-28.045731 1.5963277 -1.0895164 8.0900002
-28.02692 1.6287994 -1.0082018 8.0914993
-27.970665 1.6845006 -1.1996553 8.0985003
-24.645842 2.3599923 -0.86186552 9.0956659
-22.836843 2.3127444 -1.0651591 9.093667
-18.317289 2.217037 -0.89193261 10.027
-17.338108 2.3360293 -1.1571648 10.0875
-17.073111 2.3477225 -1.1089761 10.0835
-16.187016 2.3282316 -0.86915052 10.0875
-14.465637 2.2384055 -0.95810068 10.2861
-14.370675 2.2017691 -1.0148785 10.622
-12.557452 2.2565877 -0.91205573 11.079499
-10.838638 2.3033149 -1.1769059 11.0865
-10.605745 2.2183037 -1.0164738 11.315723
-9.0048342 2.2505665 -0.87995148 13.07
-8.6065254 2.284286 -0.90769684 13.643049
-5.814096 2.2532976 -1.0578603 13.417916
-5.2735043 2.3276908 -0.93298268 14.103864
-5.1796932 2.3462839 -1.0369594 14.11025
9.0223017 2.3032067 -1.0454575 14.10825
-27.53447 2.7573533 -1.1718194 9.0985003
-18.808283 2.7233014 -0.95580006 10.093
-13.399335 2.5565574 -0.94021517 12.032812
-12.120455 2.7470241 -0.91438991 12.556
-11.228878 2.5014689 -0.86965805 13.0355
-11.060378 2.5727053 -1.0039279 12.677562
-9.6545181 2.4982622 -0.89382553 12.121
-9.3021774 2.5872834 -1.028959 12.958125
-9.07302 2.4925971 -1.1209872 12.09
-7.48174 2.415658 -1.1358958 13.084
-5.2855496 2.4807689 -1.0040905 14.085125
9.7624655 2.5594203 -1.0789633 14.1165
10.288795 2.6843033 -1.0354751 14.116
10.575385 2.6065733 -1.0785803 14.0995
-9.0016747 2.8999996 -1.0707117 13.426042
10.674822 2.8148034 -0.99396908 14.1165
13.150798 2.9682286 -1.031579 13.274875
-0.68253899 -0.60721028 -0.58525562 4
4.3114681 -0.65133369 -0.77755749 3
-0.89956921 -0.094857156 -0.62204611 6.0666666
-0.7048009 -0.19741052 -0.55595374 6.0694447
-0.22516672 -0.25863472 -0.60282254 5.3333335
0.31573033 -0.25043449 -0.77311563 5
0.69066954 -0.25546446 -0.55194092 5
1.014032 -0.27123716 -0.48710251 4.1666665
1.3565292 -0.088086247 -0.48160991 6.476191
1.6697557 -0.15257691 -0.49470726 5.0999999
2.6682708 -0.26152098 -0.58953714 4.3809524
3.001045 -0.25610489 -0.56036729 4.6111112
3.3765011 -0.26170951 -0.61421263 4.6999998
3.7706127 -0.25920716 -0.60545146 3.7916665
4.2795086 -0.15513249 -0.52162772 5.7746911
4.4397936 -0.12888648 -0.64213067 6.5
4.9781761 -0.13303763 -0.49737704 6.25
-0.88099068 0.07423427 -0.58859545 8.1502914
-0.70891219 0.086489953 -0.55989105 8.2040882
1.1730187 0.070808597 -0.54014301 8.0557499
1.400442 0.078954928 -0.5847038 8.0746212
1.644276 0.067731351 -0.59586048 8.0497274
4.2860808 0.25381589 -0.55249465 8.7727146
4.5205665 0.20664799 -0.59994429 8.6297359
4.9907136 0.21349268 -0.47625518 8.62185
4.2450347 0.53336418 -0.59851927 10.520838
4.5639696 0.63565367 -0.5454846 11.605519
4.9765697 0.52447444 -0.53570318 10.535684
5.0638633 0.84944844 -0.56737113 12.640751
5.2519746 0.89315605 -0.57898688 12.28785
-28.139221 1.4555837 -0.47505963 8.1234999
-28.061514 1.6654129 -0.54223514 8.0799999
-27.969063 1.6631017 -0.65997851 8.10075
-24.902193 2.2066267 -0.50728881 9.0734997
-24.646584 2.3342829 -0.58483618 9.0946665
-17.256918 2.3432703 -0.69271469 10.088
-14.622719 2.3830457 -0.76997423 11.069875
-14.360538 2.1710746 -0.70344239 10.457
-13.201881 2.3736541 -0.59878755 11.0875
-13.005696 2.3790143 -0.46812987 11.0875
-12.7257 2.2974248 -0.57612252 11.0835
-10.637481 2.210896 -0.60661018 11.237213
-9.0051737 2.213876 -0.58547962 12.414333
-8.6957741 2.2644675 -0.5670355 13.42728
-6.8707509 2.2790139 -0.64509732 14.078751
-6.7021952 2.2473052 -0.70611084 13.58275
-5.7823792 2.270997 -0.6043126 13.750999
-5.2422662 2.3045955 -0.49560434 14.111051
8.7911215 2.2422071 -0.58129311 14.1055
8.9343033 2.2133162 -0.62727469 14.103333
11.800133 2.2486751 -0.43734944 12.115
-24.664856 2.4457839 -0.4669942 9.0934992
-21.471256 2.6790662 -0.59292197 10.071
-18.82666 2.7476299 -0.65579033 10.098
-15.98719 2.7919075 -0.64601755 11.088
-14.632114 2.4642096 -0.57576388 11.07425
-13.351814 2.5751529 -0.66257751 11.6616
-13.043945 2.5076118 -0.48009646 12.0265
-11.120681 2.5000565 -0.60767895 12.761893
-10.627381 2.627496 -0.64887202 12.423
-10.167109 2.6656873 -0.70002818 12.091
-9.6622763 2.5019941 -0.6434325 12.11875
-9.3897114 2.6398056 -0.71178472 13.279302
-8.5735693 2.7388752 -0.6946997 13.107334
-8.2146835 2.7337887 -0.66192746 13.585501
-7.8561611 2.7430394 -0.62334442 14.0855
-5.3229847 2.4673328 -0.6200611 14.086751
10.353559 2.684504 -0.66355991 14.1141
10.542789 2.5303564 -0.62934279 14.094749
-18.779776 2.9442954 -0.69021404 11.032
-13.277791 3.0293267 -0.50235081 12.4005
-13.159312 3.1648705 -0.63732958 12.087
-9.0494137 2.846312 -0.50095189 13.308301
13.112468 2.9153237 -0.61578959 13.113427
-0.74368834 -0.54179341 -0.17253602 4
4.3027768 -0.45591593 -0.11736774 3.8333333
4.9942741 -0.4960703 -0.051100612 3
-0.92452103 -0.07222797 -0.23050576 5.4878788
-0.72247106 -0.19396473 -0.19197132 5.90873
-0.11991453 -0.25147542 -0.31660986 5
0.23740731 -0.24081717 -0.11289505 3.6666667
0.6149534 -0.25049657 -0.097784318 3.4000001
0.97084403 -0.2511861 -0.17302293 3.5925925
1.4155713 -0.26789057 -0.27218848 2.2916665
1.8091434 -0.26641777 -0.10148104 1.7380953
2.1644511 -0.27112228 -0.060556471 2.1666667
2.6131248 -0.26252571 -0.20792615 3.2023811
2.9256275 -0.26687652 -0.19044597 3.2777777
3.4102681 -0.25701946 -0.21419796 2.7551281
3.7725737 -0.26334837 -0.23810603 3.0357144
4.2592893 -0.14937666 -0.23453403 5.4532137
4.9714046 -0.12636177 -0.082517743 5.6875
-0.88514125 0.087567799 -0.17150609 8.3436394
-0.71553445 0.088617511 -0.18732624 8.1282301
4.3206306 0.25155371 -0.29344606 9.3050079
4.5073924 0.251773 -0.15461119 9.0461168
4.9627156 0.26344094 -0.15713248 9.2106237
4.2283468 0.52166086 -0.25540319 10.886699
4.6083307 0.5480144 -0.19855987 12.099697
4.9643826 0.53406644 -0.14413165 11.537903
5.0815749 0.8928622 -0.21285443 12.535526
5.2888618 0.98093891 -0.28928912 12.1135
-28.073469 1.5476532 -0.24092527 8.0951672
-28.063026 1.6259265 -0.166217 8.0928755
-24.882042 2.2816989 -0.33298379 9.0725002
-24.697762 2.3658309 -0.30774188 9.1026001
-16.904997 2.3006723 -0.25824225 10.0795
-16.563837 2.3230941 -0.13000193 10.104
-14.693746 2.3909369 -0.12497556 11.073
-14.365787 2.2050228 -0.36000383 10.725667
-10.661255 2.237226 -0.18228078 11.367818
-8.8570538 2.2956071 -0.10494733 12.5895
-8.6726446 2.2923725 -0.18318936 13.899607
-8.2528324 2.3623664 -0.13871276 13.087
-6.93154 2.290962 -0.20062535 13.420917
-6.7311325 2.2889049 -0.075951137 13.750333
-5.915411 2.2404685 -0.12048221 13.085751
-5.2822981 2.3174734 -0.24149877 14.098416
8.7640533 2.2401187 -0.23266351 14.109625
8.9093466 2.1982236 -0.32522273 14.101
11.787823 2.2341318 -0.15127701 12.114
-27.675669 2.6148822 -0.10835266 9.0843344
-24.685909 2.4143608 -0.38588393 9.0889997
-21.507265 2.695987 -0.082194567 10.0695
-20.21023 2.4406357 -0.24489272 10.028
-16.489119 2.4662216 -0.11720919 10.407208
-14.018219 2.5260556 -0.3031683 11.088
-13.383973 2.5887048 -0.17965987 11.567215
-11.152234 2.5065401 -0.17051104 13.035313
-10.694683 2.4184632 -0.3296414 12.55925
-10.011592 2.4403796 -0.19693375 13.072
-9.7017059 2.5083368 -0.055380046 12.117
-9.3135252 2.5281644 -0.19735995 13.07797
-9.0441704 2.4145076 -0.23312718 13.0655
-8.1973991 2.4065008 -0.13095468 14.0725
-7.2359123 2.4239578 -0.013497353 13.086
-5.3473144 2.423419 -0.19898534 14.087833
10.281641 2.6431777 -0.21362107 14.110749
10.51954 2.5257852 -0.14505832 14.09625
-16.021225 2.8042159 -0.12737685 11.0865
-15.992845 2.8013506 -0.38414526 11.088
-13.282766 3.0705745 -0.20022024 12.6435
-11.36244 3.1341867 -0.16633803 13.58
-9.0636444 2.892375 -0.16933894 13.456069
13.083563 2.9193254 -0.20932843 13.24925
-12.549936 3.205683 -0.21504891 13.079
-12.247881 3.231632 -0.041209579 14.032
-0.80818558 -0.54027671 0.36850566 4
-0.78489065 -0.53291011 0.26398221 4
4.2519093 -0.45604935 0.069411039 3.5
4.4676809 -0.40116826 0.19042826 3
4.9293752 -0.51663023 0.15102229 3.875
-0.89275527 -0.11596668 0.19532612 5.2198172
-0.76027918 -0.17868915 0.20752406 5.7833333
-0.27031365 -0.24208339 0.24225266 1.6944445
0.22275595 -0.24749643 0.22171319 2.0208335
0.59216112 -0.25406408 0.15186539 2.2820513
1.0066391 -0.24858728 0.19548126 2.3333335
1.3865602 -0.26046583 0.17679767 2.0999999
1.8758031 -0.23725639 0.20751518 1.25
2.1937678 -0.25615853 0.15735683 1.9571428
2.5882046 -0.25847456 0.25584283 1.4791669
3.0626268 -0.25849235 0.22228479 2.4375
3.4010377 -0.2541891 0.17679325 2.5499997
3.7734923 -0.25133035 0.1828979 2.4416666
4.2698007 -0.18598424 0.1303674 4.8732462
4.5547566 -0.15304027 0.23242092 4.4562101
4.9093475 -0.14519382 0.18948787 5.6625657
-0.90446728 0.088866264 0.19578119 8.4588766
-0.76130688 0.090193436 0.22315741 8.3338547
4.2226467 0.11193128 0.17310654 8.6027927
4.5414615 0.18563358 0.16823272 8.5993834
4.9299278 0.27009836 0.19776748 9.329463
4.2250791 0.52726662 0.18161562 11.842916
4.635087 0.61300385 0.19115111 12.121462
4.911365 0.5273127 0.23133151 11.805058
4.9569592 0.85181332 0.23423366 12.765332
5.3216705 0.97033036 0.015613556 12.106
-27.938828 1.5319569 0.21110696 8.1127501
-27.939083 1.6353394 0.14039481 8.09025
-25.854568 2.3788314 0.057201743 9.0895004
-23.26696 2.3208079 0.12342 9.0924997
-17.238155 2.2462828 0.064852715 10.0755
-16.578024 2.30688 0.24156402 10.098312
-14.763781 2.3969574 0.16494048 11.0735
-8.822093 2.2411368 0.00091159344 12.087
-8.4783478 2.2572565 0.29743695 12.123
-6.8513813 2.2927358 0.10598278 13.08625
-6.7954803 2.3847234 0.016526222 13.096
-5.780632 2.2919848 0.039325118 14.085751
-5.3162732 2.3210642 0.20909236 14.105206
-5.0702281 2.3751512 0.1349833 14.085751
8.6661482 2.2197018 0.13499713 14.111688
8.8717155 2.2068708 0.033866286 14.102
11.772589 2.22119 0.13666974 12.113
-27.686253 2.6878166 0.21835633 9.1008749
-25.855413 2.491931 0.060309488 9.0966673
-21.208586 2.5601423 0.076516628 10.0285
-16.510489 2.5117757 0.17619953 10.682156
-15.825338 2.7726173 0.14150715 11.085
-14.849669 2.4036059 0.1970095 11.06925
-14.65606 2.4627702 0.21124899 11.0755
-13.383937 2.6064692 0.20413223 11.395625
-11.216558 2.493154 0.32923594 13.038
-11.167672 2.4877954 0.11798508 12.654901
-9.4437904 2.5507555 0.10707057 13.084
-8.5690823 2.7649806 0.39220858 13.0925
-7.7423782 2.4465191 0.3253209 13.58575
-6.8613424 2.4083183 0.012151003 13.091
-5.3945875 2.405256 0.36445451 14.091
10.305725 2.6213443 0.16343293 14.108099
10.539541 2.5235357 0.3146919 14.0965
11.759957 2.4427502 0.073750257 13.0965
12.557797 2.6111548 0.14526772 13.096
-13.325717 3.0133004 0.15477216 12.333626
-9.0898409 2.8487535 0.12811421 13.524072
13.048687 2.9207575 0.2004388 13.288227
-12.305171 3.2205064 0.13896377 14.0365
4.9181118 -0.90827298 0.68199193 2
-0.82120258 -0.54646838 0.65487146 3.75
-0.79303789 -0.51708037 0.49952936 4
4.6732893 -0.47688103 0.59538257 3.55
4.9112415 -0.62941545 0.67334914 3
-0.88850284 -0.13789868 0.6136288 5.3873115
-0.75873286 -0.18632399 0.58289319 5.2015743
-0.18968426 -0.22243576 0.56602955 0.66666669
0.23049875 -0.25354266 0.60503137 2.4000001
0.56818539 -0.25777015 0.56613648 3.2111111
0.95970696 -0.25726727 0.59582865 2.0999999
1.3440415 -0.26226711 0.56713277 1.90625
1.7108593 -0.24555309 0.58539873 0.91666663
2.274014 -0.24811324 0.58162528 1.0357143
2.6342878 -0.25723848 0.63244057 1.1933333
2.9981029 -0.25700673 0.62347287 0.84027773
3.3597803 -0.26097852 0.64396691 3.03125
3.747093 -0.25232399 0.60295218 1.0708333
4.2027221 -0.26851577 0.55911529 1.7375
4.6554623 -0.16045153 0.62880671 5.256989
4.8491783 -0.1384159 0.73823655 6.4583335
-0.88420433 0.097751014 0.61418176 8.3373642
-0.78069514 0.088049062 0.58080012 8.1272469
4.6888494 0.10183907 0.59743863 8.372014
4.8948512 0.26937142 0.57704598 9.4384699
4.9023337 0.56503183 0.59047389 12.008113
5.5680971 0.79859638 0.71984661 11.1025
4.9701104 0.90830189 0.62218839 12.768575
5.4564567 0.84244424 0.66912591 13.092649
5.7641878 1.0428385 0.71157366 13.340626
-27.93609 1.5039269 0.53001845 8.0985003
-27.997084 1.6632304 0.55061531 8.0900002
-25.936049 2.383657 0.57993281 9.0900002
-17.570662 2.3668699 0.54472089 10.0895
-16.618576 2.2396452 0.48560131 10.0895
-8.9702768 2.3384633 0.62488341 14.037583
-8.5914564 2.2772138 0.61239654 12.718113
-8.2680893 2.2846789 0.56218827 12.838938
-7.9748387 2.3141272 0.65753323 13.417667
-5.7841077 2.2944906 0.61283344 14.087166
-5.3291202 2.3325033 0.57458138 14.09997
8.7019539 2.230577 0.63853002 14.110875
-27.693279 2.662076 0.60382921 9.0916004
-21.567459 2.7200232 0.73240024 10.0755
-18.924585 2.7164183 0.60063618 10.094833
-17.795128 2.5230064 0.66172582 10.098167
-16.580303 2.4027128 0.40684223 10.089
-16.09351 2.7914867 0.61562198 11.085125
-13.780255 2.4777555 0.60969675 11.089251
-13.459919 2.6021869 0.61419481 11.609653
-11.235525 2.5297375 0.63613153 13.036151
-11.183288 2.4926977 0.42337036 12.085
-8.6595535 2.7778533 0.41025686 13.0975
-8.0848656 2.6010809 0.5964933 13.107305
-7.7828393 2.478205 0.54502082 13.750667
-5.4369116 2.4317601 0.63812995 14.08725
10.297821 2.5750234 0.62369984 14.101625
10.543801 2.5165248 0.49989903 14.096
11.714694 2.4101505 0.77753091 13.095
12.162373 2.5144553 0.50192499 13.0955
-18.897718 2.9596608 0.67621225 11.033751
-16.085112 2.803968 0.74531269 11.0895
-13.359978 3.0787296 0.64572549 12.416751
-13.025726 3.1874216 0.64486027 13.076
-12.253361 3.1674192 0.5856514 14.0385
-9.274765 2.9241261 0.69424868 13.089
-9.1305599 2.9535127 0.53573585 13.838625
13.036283 2.9062231 0.56835985 13.325806
15.82634 3.0858195 0.6282832 13.393833
-0.83480453 -0.5232175 0.92306697 4
4.757895 -0.4998455 1.0171067 3.4071429
4.8423796 -0.62437546 0.99013698 2.8333335
-0.86233217 -0.16165884 0.98887795 5.1677227
-0.75144434 -0.18719344 0.96458715 4.1307993
-0.22652395 -0.24730754 0.96936715 0.9666667
0.22765052 -0.2487911 1.0117624 2.3333333
0.62191224 -0.26842135 1.0292484 2.3962963
1.0004321 -0.25834194 1.0099415 0.97916669
1.3912241 -0.26291341 0.99735945 1.2583333
1.8026087 -0.24944331 1.0203424 1.1041667
2.2377954 -0.25687027 1.0120783 1.25
2.6132779 -0.25247151 1.0645486 1.2303922
3.0059955 -0.25215831 1.00157 1.4416667
3.3779228 -0.25314069 0.9933306 2.5541666
3.7590151 -0.2530627 1.0270506 1.2083334
4.2384305 -0.26881114 1.0720853 1.1904763
4.7086406 -0.15203072 1.0202003 5.1822686
4.8530083 -0.1742997 1.0802467 4.7487855
-0.8514266 0.098659761 0.99337286 8.358243
-0.78762388 0.081219457 0.931817 8.015583
4.723671 0.14620911 1.0082743 9.0408192
4.8542094 0.25378826 1.0105262 9.5532303
4.8801155 0.54526991 1.0025598 11.914711
5.0095553 0.88004255 1.013649 13.19515
5.3837547 0.91397554 0.83609581 13.125799
5.7467108 1.0292884 0.83518589 12.786344
6.0053196 1.1478877 0.8589499 12.112
-21.906973 1.94604 1.1127228 9.0749998
-21.623009 2.0836506 1.0727808 9.11625
-21.582958 2.0678635 1.0475167 9.0900002
-18.494678 2.2395179 1.0862284 10.0295
-17.436626 2.3561184 1.0869746 10.09
-14.748941 2.3874702 0.8392334 11.0745
-8.8267031 2.3139296 0.89570659 14.03825
-8.6285791 2.2754691 1.0321696 13.072887
-8.201746 2.2981763 0.98705912 13.00423
-5.9047899 2.280704 0.96360707 14.08825
-5.3643503 2.3335204 0.97469264 14.101999
8.6642675 2.2348461 1.0019662 14.111051
11.719604 2.1842809 0.93609786 12.11025
-21.58279 2.6881676 0.9943319 10.07275
-19.709541 2.6805952 0.96330607 10.1245
-19.562181 2.7186019 1.1985452 10.108
-17.81657 2.4218111 0.89354956 10.086
-14.921045 2.4185483 1.0067638 11.0705
-14.713895 2.4722841 0.90253651 11.0765
-13.606524 2.595927 1.1522403 12.0385
-13.470859 2.6100283 1.0008026 11.576922
-11.231151 2.5036216 0.95631421 12.56075
-9.7851734 2.5239823 1.1206856 12.089
-9.0896006 2.7909992 1.1302356 13.1075
-8.6580372 2.6915245 1.1963459 13.089
-8.1490459 2.5972612 0.94821739 13.240858
-7.9216585 2.5064144 0.8970753 14.083125
10.489838 2.5372386 0.97661382 14.096875
11.364266 2.7053666 1.028896 14.0945
11.677652 2.564584 0.9869737 13.5925
12.380792 2.767014 1.0754483 13.112
12.587329 2.7278802 1.093006 13.433
13.171826 2.7705803 0.87313187 14.076
14.571899 2.7828145 1.1326915 13.0795
-21.509268 2.8693264 0.82351398 10.081
-18.932215 2.9172215 0.99735153 11.036062
-16.115639 2.8102717 1.0006671 11.088
-13.394817 3.037915 1.0059004 12.570345
-13.0457 3.1920247 0.90773088 13.0765
-9.1660986 2.8962166 1.0874587 13.431832
12.895311 2.8233099 1.126999 13.102
15.788382 2.9619226 0.8709138 12.111
-0.88171321 -0.5003798 1.4451392 3.875
4.8581824 -0.558577 1.401865 3.3333333
-0.88767433 -0.14522192 1.4057844 5.1422429
-0.62577456 -0.24197285 1.3661555 1.4129629
-0.18345925 -0.26502746 1.3439623 1.0208334
0.24644563 -0.26609063 1.4214821 2.6133332
0.57471263 -0.26287138 1.4189196 2.4107144
1.0552493 -0.25289887 1.3673388 0.69444442
1.4003657 -0.24777389 1.4037049 0.69523811
1.7760442 -0.25138929 1.4015802 1.3571428
2.2353086 -0.2492841 1.384807 1.2948718
2.5678101 -0.24777144 1.4048553 0.79166663
2.978039 -0.25338343 1.3750614 1.4305557
3.3848624 -0.25738579 1.3366686 1.759804
3.8100624 -0.25910613 1.3913589 1.1944444
4.148922 -0.27089748 1.4062673 1.3055555
4.7095537 -0.19864792 1.3654249 3.5956542
4.8351812 -0.13884129 1.3986386 5.4366374
-0.90849239 0.092914261 1.4000226 8.2225571
4.7948151 0.24553207 1.5808985 11.16925
4.834444 0.23844397 1.3963616 9.6277571
-13.404711 0.79306436 1.3780371 8.125
4.8890085 0.57323611 1.3827665 11.823168
-13.401517 0.85977268 1.5190542 8.1002998
4.9932799 0.83815128 1.4352012 13.092607
5.2144718 0.84046352 1.3891119 13.087875
6.8362508 0.87787735 1.5364773 14.0275
-21.879665 1.253695 1.3335431 8.1052504
-21.66254 1.9872371 1.3297312 9.0710001
-21.622332 2.112381 1.4033233 9.1000624
-21.58963 2.06499 1.2573632 9.0817499
-18.527054 2.2462521 1.4385985 10.03
-17.660099 2.3682103 1.4607215 10.090625
-17.268793 2.3536911 1.2548248 10.0865
-14.702934 2.2520518 1.3723308 10.502892
-12.864031 2.2765603 1.568929 11.082
-10.948042 2.247757 1.553153 11.1
-8.0105362 2.286083 1.2017488 13.09
-5.8146687 2.2932339 1.3331513 14.089063
-5.4096003 2.3207495 1.3732762 14.100945
8.6752138 2.2267225 1.3468777 14.10875
10.703922 2.3927221 1.4314249 13.59875
11.349669 2.3544192 1.5257125 14.0825
11.716221 2.2298193 1.3830096 12.721001
13.745546 2.1356001 1.5677207 12.082
-21.643372 2.6700709 1.5989746 10.0755
-21.591068 2.7490916 1.2635148 10.073999
-18.035204 2.7620034 1.4172435 11.039
-17.676414 2.4766824 1.4960487 10.0905
-14.946239 2.4254978 1.2987809 11.071
-14.729015 2.4763277 1.2053707 11.077
-14.033749 2.7014854 1.5703483 12.035
-13.639452 2.6029406 1.4134581 12.039
-13.504963 2.607399 1.3969117 11.466691
-11.257654 2.5043948 1.3466126 12.559126
-9.8175135 2.5375404 1.3538737 12.581625
-9.571887 2.5213587 1.3951951 12.3405
-8.9494352 2.7821732 1.4716107 13.114
-8.7642345 2.7890282 1.4574146 13.09025
-8.1916389 2.5439391 1.2436454 14.0815
-7.7817588 2.4458086 1.4197592 13.422084
-5.4898453 2.4139464 1.2295307 14.08875
10.279943 2.5898111 1.3655106 14.101749
10.998182 2.4171751 1.4414128 14.0825
11.346466 2.41871 1.4981287 13.0975
11.661409 2.4519653 1.3620105 14.07975
15.722888 2.7313142 1.3868358 12.089
17.229633 2.7910695 1.5315706 12.074
-21.644245 3.0068016 1.4649472 10.0905
-18.263929 2.8365865 1.3233503 11.0385
-16.141624 2.8101063 1.2731875 11.0885
-13.42851 3.0551238 1.3910682 12.689531
-13.046926 3.1969378 1.533221 13.0775
-11.639148 3.1338756 1.3592017 13.09025
-11.458034 3.1684747 1.4044154 14.0755
-9.2205734 2.839931 1.4028594 13.60075
-9.189332 2.939296 1.4285055 13.756749
12.965431 2.9301999 1.372708 13.5009
13.378743 2.8108542 1.2978323 14.075
-12.622893 3.2109017 1.4052682 13.08175
-12.296549 3.2224779 1.472997 14.036875
-11.139193 3.2065134 1.5962008 14.07775
-0.9170354 -0.50071692 1.8152657 3.8499999
4.7913566 -0.67163569 1.9434185 3.3333333
4.824976 -0.51868075 1.8037442 3.3888891
-0.91516602 -0.17833552 1.7838799 4.8328376
-0.635656 -0.25031963 1.8000492 0.93333328
-0.20196104 -0.24158996 1.7941216 1.0277778
0.23355247 -0.25828114 1.7972842 2.0833335
0.60018688 -0.24727404 1.7930282 1.7619048
0.97026151 -0.25459072 1.7916801 1.119697
1.3267015 -0.25405896 1.8316984 1.2023809
1.7553462 -0.2567378 1.7782581 1.7121212
2.1909063 -0.25692266 1.7873362 1.1333333
2.580617 -0.25380462 1.7672678 0.60000002
3.010766 -0.2590932 1.8005536 2.1555555
3.3675549 -0.25191388 1.7612543 2.3666668
3.8362436 -0.26465446 1.823056 0.91666663
4.1942596 -0.27621078 1.7891369 0.2
4.7671771 -0.17744474 1.8632057 4.529139
4.8189812 -0.15184003 1.7263627 5.3878484
6.1942139 -0.13462305 1.9390208 5.9333334
-0.91487533 0.089412548 1.786377 8.1677446
4.7873058 0.24904062 1.8486079 9.8398438
4.8178921 0.24232867 1.7714952 10.053301
5.2610874 0.26870623 1.9867253 11.03
6.194581 0.2403184 1.8776584 8.8892708
-13.474541 0.79757804 1.9774936 8.0915003
4.7847672 0.48719257 1.8309128 10.805875
4.8747973 0.63961214 1.7924507 11.490542
5.2623487 0.59895575 1.8741355 13.062167
6.1929345 0.5527392 1.8809339 11.880584
-13.466515 0.84510022 1.7845904 8.1005411
4.7937446 0.85144877 1.8407004 12.0505
5.0546379 0.85465223 1.6939193 12.719313
6.1667776 0.84771562 1.9068094 12.0825
8.5419865 0.93477207 1.7864447 12.0255
-21.615211 1.9202061 1.6115636 9.0754995
-21.651806 2.1233654 1.8360233 9.0972281
-17.687054 2.3769031 1.8046988 10.091
-16.65036 2.2674847 1.6824708 10.082
-14.809343 2.3939357 1.7710671 11.076
-14.718318 2.2813671 1.7932169 11.037107
-12.861757 2.2783077 1.8378 11.0825
-10.917554 2.2187836 1.7616886 11.2962
-10.747388 2.2554109 1.7794485 11.749166
-8.9497929 2.3239698 1.8289385 12.09025
-8.795702 2.2732248 1.8511925 12.0905
-7.0163264 2.2435122 1.9257727 14.0835
-5.8241749 2.3017166 1.8945636 14.0905
-5.4518108 2.3394437 1.7948642 14.101749
11.719943 2.2049601 1.7102462 12.109666
-17.836788 2.5033693 1.7770226 10.10375
-15.423651 2.6961467 1.6530051 11.091
-14.820848 2.4161198 1.9676845 11.072
-14.799683 2.4946375 1.9059782 11.078
-13.635547 2.5864239 1.8175672 12.03975
-13.501897 2.6034813 1.7932589 11.66385
-12.178401 2.7229345 1.8340813 12.405416
-11.809191 2.7949114 1.8159575 13.072
-11.473724 2.7381592 1.9501681 13.0765
-10.778065 2.7179868 1.9156814 12.1005
-10.182265 2.6634638 1.8137689 14.04125
-9.7106609 2.5485015 1.852077 12.843374
-9.5057716 2.5772119 1.6723306 13.568937
-8.930069 2.7897217 1.8825164 13.101001
-7.7845798 2.4387484 1.7213831 13.090167
-5.5131445 2.4008484 1.7287771 14.09
10.186481 2.6131587 1.8629106 14.1064
10.432444 2.5658307 1.6401823 14.09725
12.315098 2.5994229 1.9467175 14.07975
13.240446 2.7632806 1.8716989 14.07375
14.948364 2.5583556 1.7613168 12.084249
15.740646 2.7610886 1.8425417 12.0925
17.52632 2.4520369 1.7632124 11.081
-21.673708 2.9946318 1.834402 10.096833
-13.441835 3.1054883 1.6212131 13.0485
-13.075449 2.9223125 1.6874461 13.04
-9.2616053 2.8136775 1.9223554 13.0905
-9.0561638 2.8461628 1.8446918 13.599
12.923672 2.9175055 1.815643 13.552136
15.145436 3.1036885 1.6985526 13.0885
15.748668 3.0208628 1.7857502 13.213751
-12.262651 3.2104247 1.6308495 14.0395
6.2193894 -0.85559869 2.221648 2.3333333
-0.93853271 -0.485493 2.2057457 4
6.2061653 -0.71794754 2.2584777 2.75
-9.7835102 -0.22143818 2.321151 7
-1.2548151 -0.23155135 2.1294761 3
-0.95232379 -0.16243869 2.2305882 4.9531703
-0.57821596 -0.24886581 2.1803901 1.8055556
-0.17533569 -0.23833483 2.2066743 1.138889
0.23028214 -0.25166267 2.2283254 2.4487178
0.57816917 -0.24968256 2.1789155 1.5297619
0.98772955 -0.2547791 2.1917505 1.2483333
1.4672968 -0.24861076 2.1842086 1.5833334
1.8129948 -0.25088784 2.1637759 1.6277777
2.1859822 -0.25553709 2.2052708 1.1654761
2.5337269 -0.26241374 2.1733277 1.9880953
3.0040805 -0.25082257 2.1340048 1.2666667
3.4046638 -0.25826246 2.1972482 2.6666667
3.8144364 -0.27309296 2.258182 1.375
4.175518 -0.25224373 2.2727568 0.66666669
4.5893435 -0.25484958 2.1556337 0.85714293
4.9075184 -0.21839513 2.2292013 4.7037039
6.2109118 -0.11938078 2.2338274 6.5
-0.96121514 0.095864967 2.2407258 8.0824347
4.7897053 0.082755677 2.0194581 8.026
5.0016003 0.22086947 2.0202839 10.136753
5.2268953 0.14151104 2.0287645 8.2496672
6.1971245 0.26330432 2.2030308 8.5737009
6.4682407 0.082150131 2.3879089 8.0804996
-13.470396 0.79487377 2.1233492 8.0915003
-10.023005 0.66108894 2.3399444 8.118
-9.7932768 0.68033069 2.2478812 8.090333
4.7861586 0.77072823 2.0135806 11.1045
4.8134995 0.66310114 2.0108871 13.584
5.2300215 0.48902526 2.0009496 11.0835
6.2010403 0.5847953 2.0721734 11.001276
7.5702171 0.60321468 2.1784096 11.0265
7.6254249 0.62757075 2.2019305 10.076333
9.1393423 0.68548405 2.3939562 9.0830002
-13.471123 0.82729465 2.2633803 8.1204996
6.1846433 0.83604658 2.068548 11.5
7.6180482 0.8307367 2.2151465 11.5
9.0504656 0.82045722 2.2975421 10.394667
-21.653875 1.9229115 2.0378752 9.0760002
-21.670786 2.1023479 2.2672369 9.0907497
-14.771656 2.2995329 2.1967003 11.035749
-12.805239 2.2950215 2.0202107 11.087749
-10.868744 2.2112792 2.2071855 11.227375
-10.797408 2.2231488 2.125875 11.096
-8.8369265 2.2497559 2.1477697 12.420583
-6.9557724 2.2318144 2.2470038 13.422501
-5.9816179 2.2821829 2.1409006 14.0915
-5.4727349 2.3383393 2.2043767 14.10125
11.650951 2.3805699 2.1429319 13.092
15.630525 2.2081015 2.0228887 11.088
17.492186 2.3249817 2.3164873 11.076749
-21.673059 2.6831532 2.2253542 10.059667
-17.775383 2.4610176 2.0974371 10.102249
-14.829136 2.4634953 2.2319965 11.0755
-13.684535 2.5798595 2.163543 11.8498
-13.571446 2.6009567 2.2504945 12.034667
-11.295975 2.4799185 2.1931598 12.08325
-9.7705431 2.5963278 2.1595452 12.992318
-9.5049858 2.5961995 2.2422962 13.852901
-8.6090117 2.7180474 2.1644855 13.100601
-8.3170261 2.7251585 2.1122427 13.84925
-5.5785213 2.4309139 2.3810301 14.1225
10.151844 2.6316807 2.1764879 14.106999
10.403601 2.560334 2.1615412 14.096
11.981932 2.5635664 2.1797879 13.096
15.724433 2.7481949 2.2705374 12.4145
17.440163 2.5297127 2.3085461 11.556749
17.774153 2.5454824 2.1094155 11.092
-21.695971 3.0521965 2.163765 10.101
-16.214725 2.8220239 2.1726558 11.0915
-13.509291 3.0553403 2.258508 12.724667
-11.606476 3.1290278 2.3793931 13.092
-9.282589 2.8855085 2.346617 13.424
12.772579 2.8048511 2.1453567 13.1
12.896469 2.9259152 2.1672559 13.499776
15.159698 3.1066463 2.3075426 13.0875
15.41527 3.1252785 2.2002077 13.573875
15.701447 2.9701881 2.2023435 12.348875
17.611801 2.8279076 2.3881116 12.08025
-0.96118569 -0.52467781 2.4781601 4
6.2360373 -0.64527798 2.4600706 3.5
-9.7854614 -0.20834319 2.5314047 7
-1.742093 -0.25304365 2.7118101 6
-1.5979772 -0.25568378 2.6538103 6
-0.99790353 -0.12917784 2.5169704 5.4200001
-0.57519859 -0.2558625 2.6361334 2.1285713
-0.19723929 -0.23312485 2.5762825 1.0833333
0.23621106 -0.2507883 2.6442788 2.7666667
0.54458702 -0.25392526 2.599606 1.7777778
1.3692539 -0.25768748 2.5674291 1.4655555
1.8350881 -0.24843508 2.5614045 1.1666667
2.2350996 -0.25514492 2.6268013 1.7291666
2.6149449 -0.25306934 2.57743 1.275
3.0205233 -0.2537235 2.5565927 3.1904762
3.3934236 -0.24448836 2.6619897 2.75
3.7745528 -0.23391062 2.597404 2.5
4.17523 -0.2542226 2.6369088 1.75
4.6064572 -0.25028339 2.5838578 3.0476191
4.938612 -0.25719962 2.531342 5.8000002
5.482223 -0.24655978 2.6471577 5.75
5.8065963 -0.23666979 2.7270265 5.5
6.2378144 -0.20587039 2.5736613 5.9166665
6.4827633 -0.26145399 2.6731653 5
7.0420723 -0.24216649 2.7909172 6
7.3584328 -0.26020974 2.6999912 6
7.8816385 -0.23588756 2.7787218 6
-1.0260481 0.099772252 2.5054028 8.0317488
6.1896091 0.22531094 2.4423659 8.3864994
-10.093065 0.69799697 2.5255105 8.1019993
-9.8819981 0.66927958 2.6207454 8.0975552
-6.2501507 0.46219227 2.6810827 8.0860004
-13.399919 0.8161875 2.4243298 8.092
12.173891 0.82390869 2.7282848 9.0795002
17.949459 1.4354601 2.7190638 9.08325
17.972757 1.9543784 2.505784 10.0784
-21.684425 2.1109388 2.5645852 9.0893745
-21.450117 2.1404166 2.6862674 9.0947495
-20.4228 2.0207043 2.7048612 9.1094999
-10.926832 2.2234273 2.5247216 11.243428
-10.749749 2.2908161 2.4696202 12.0795
-8.8837805 2.244767 2.5604475 12.585687
-7.0261869 2.2456474 2.7047832 13.092625
-6.3572817 2.3058236 2.7093954 14.0935
-5.912786 2.2968543 2.5428727 14.092418
-5.5005531 2.3354256 2.6172352 14.099999
11.650298 2.3835239 2.6149173 13.091
12.26565 2.3104482 2.7727425 12.108
17.446569 2.3764746 2.703208 11.0765
17.938515 2.1179364 2.6738825 10.0955
-21.68375 2.7505362 2.6928325 10.0725
-20.537834 2.6065347 2.7160602 10.06175
-20.147287 2.7139659 2.6315558 10.088
-19.104021 2.7172871 2.5101593 10.095166
-14.852528 2.4054813 2.6122828 11.07725
